ply
format ascii 1.0
element vertex 109
property float x
property float y
property float z
end_header
-0.591555 -0.0529151 -0.000629582
-0.594617 -0.10468 -0.000466629
-0.591391 -0.0479556 -0.000638544
-0.590528 -0.031169 -0.00068552
-0.593388 -0.0771187 -0.000526239
-0.59336 -0.0764896 -0.000527617
-0.593431 -0.0770311 -0.000522637
-0.593318 -0.074891 -0.00052882
-0.593349 -0.0750409 -0.00052648
-0.592908 -0.0661871 -0.000548362
-0.592705 -0.0625429 -0.000559412
-0.592888 -0.0645858 -0.000547714
-0.592718 -0.0618919 -0.00055771
-0.592647 -0.0601118 -0.000561169
-0.592689 -0.0607123 -0.000558698
-0.59083 -0.026753 -0.000664414
-0.590799 -0.0248697 -0.000665265
-0.590491 -0.0165555 -0.000674654
-0.592451 -0.0549488 -0.000569939
-0.595195 -0.105544 -0.000414336
-0.591696 -0.0414845 -0.000610543
-0.593845 -0.0807818 -0.000496858
-0.592385 -0.0532961 -0.000572876
-0.59166 -0.0402504 -0.000612413
-0.59169 -0.0406852 -0.000610443
-0.59387 -0.0802868 -0.000494301
-0.591606 -0.0379943 -0.000614646
-0.594025 -0.0828861 -0.000484504
-0.594048 -0.0831777 -0.000482994
-0.591589 -0.0371208 -0.000614955
-0.591527 -0.035626 -0.000617808
-0.59402 -0.0820843 -0.000483937
-0.59182 -0.040669 -0.000599653
-0.592568 -0.0539794 -0.000559767
-0.594057 -0.0825277 -0.000481437
-0.591531 -0.0346075 -0.000616862
-0.591033 -0.0229537 -0.000644178
-0.59409 -0.0827425 -0.000478928
-0.592436 -0.050579 -0.000566367
-0.59112 -0.0229764 -0.000637702
-0.594407 -0.0879317 -0.00045884
-0.59112 -0.0222799 -0.000637262
-0.594435 -0.0882605 -0.000456868
-0.594435 -0.0882605 -0.000456868
-0.591152 -0.0220097 -0.000634537
-0.594435 -0.0877716 -0.000456226
-0.59441 -0.087243 -0.00045766
-0.591108 -0.0188736 -0.000634578
-0.594281 -0.0839232 -0.000464418
-0.594646 -0.0903352 -0.00044102
-0.591208 -0.020062 -0.000628713
-0.594301 -0.0840515 -0.000462845
-0.594611 -0.0895704 -0.000443053
-0.59216 -0.0414512 -0.000575732
-0.594555 -0.088335 -0.000446379
-0.594555 -0.0883241 -0.000446394
-0.594562 -0.0881654 -0.000445527
-0.591659 -0.0299136 -0.000603442
-0.594382 -0.0845793 -0.00045652
-0.594363 -0.0841578 -0.000457592
-0.594363 -0.0841494 -0.000457587
-0.594426 -0.0852758 -0.000453552
-0.591733 -0.030034 -0.000597498
-0.593007 -0.0560297 -0.000530685
-0.594194 -0.0805213 -0.000467909
-0.592958 -0.0546446 -0.000532976
-0.593063 -0.0566148 -0.000526929
-0.593628 -0.0673776 -0.000494222
-0.593583 -0.0660484 -0.00049643
-0.593554 -0.0655078 -0.000498087
-0.594336 -0.0823491 -0.000457968
-0.591679 -0.0267354 -0.000597775
-0.593006 -0.0547732 -0.000529457
-0.595281 -0.0998259 -0.000398154
-0.591938 -0.0315046 -0.000582114
-0.593073 -0.0548231 -0.000524498
-0.595521 -0.103634 -0.000381519
-0.593174 -0.0561085 -0.000518021
-0.595163 -0.0964976 -0.000404249
-0.594405 -0.0813386 -0.000450689
-0.592229 -0.0349501 -0.000564468
-0.59302 -0.0518686 -0.000525352
-0.594911 -0.0902203 -0.000417303
-0.594214 -0.0767231 -0.000461117
-0.59519 -0.0948562 -0.000399672
-0.594479 -0.0801057 -0.000442443
-0.595177 -0.0944523 -0.000400323
-0.594549 -0.0802436 -0.000436363
-0.592225 -0.0290842 -0.000554816
-0.594529 -0.0797507 -0.000437504
-0.595204 -0.0939816 -0.000397219
-0.594511 -0.0793071 -0.00043845
-0.59414 -0.07105 -0.000459605
-0.594202 -0.0706693 -0.000453718
-0.594179 -0.069687 -0.000454541
-0.594362 -0.0724715 -0.000442102
-0.594374 -0.0723198 -0.000440725
-0.594377 -0.0716604 -0.000439728
-0.59415 -0.0662457 -0.00045252
-0.595014 -0.0834057 -0.00039837
-0.59481 -0.0758737 -0.000406531
-0.594793 -0.0754619 -0.000407521
-0.594854 -0.0762957 -0.000403212
-0.59482 -0.075507 -0.000405156
-0.59482 -0.075507 -0.000405156
-0.594795 -0.0748738 -0.000406547
-0.594769 -0.0741497 -0.000407872
-0.594784 -0.0734495 -0.000405699
-0.594784 -0.0734495 -0.000405699
