ply
format ascii 1.0
element vertex 1108
property float x
property float y
property float z
end_header
-0.579793 -0.0849956 -0.000719127
-0.579507 -0.0849632 -0.000706337
-0.579685 -0.0849827 -0.000715508
-0.587705 -0.0862019 -0.000684474
-0.577174 -0.0846218 -0.00069888
-0.575584 -0.0843774 -0.000708541
-0.574666 -0.0842406 -0.000708325
-0.578131 -0.084774 -0.000687589
-0.575892 -0.0844349 -0.0006943
-0.57545 -0.084368 -0.000695724
-0.574301 -0.0841906 -0.000702933
-0.574301 -0.0841906 -0.000702933
-0.575866 -0.0844342 -0.000690552
-0.573716 -0.0841014 -0.000705448
-0.575451 -0.0843715 -0.000691657
-0.574604 -0.0842419 -0.000695543
-0.575667 -0.0844062 -0.000688695
-0.575763 -0.0844232 -0.000685148
-0.588083 -0.0862691 -0.000670969
-0.575116 -0.0843232 -0.000689466
-0.57383 -0.0841243 -0.000698396
-0.57398 -0.084152 -0.000691939
-0.572795 -0.0839574 -0.00071293
-0.573279 -0.084047 -0.000692438
-0.573279 -0.084047 -0.000692438
-0.572717 -0.08396 -0.000696288
-0.572966 -0.0839817 -0.000714067
-0.573922 -0.0841476 -0.000687075
-0.572181 -0.0838872 -0.000687979
-0.571148 -0.0837349 -0.000685952
-0.571148 -0.0837349 -0.000685952
-0.571148 -0.0837349 -0.000685952
-0.570651 -0.0836635 -0.000682735
-0.574175 -0.0842158 -0.000650072
-0.571104 -0.0837349 -0.000678291
-0.573166 -0.0840312 -0.000691813
-0.569761 -0.0835323 -0.000680777
-0.571629 -0.0838186 -0.000671455
-0.577995 -0.0848173 -0.000609213
-0.572949 -0.0840379 -0.000644458
-0.579719 -0.085082 -0.000598775
-0.570783 -0.0836871 -0.000677941
-0.570722 -0.0836804 -0.000675161
-0.571346 -0.0837762 -0.000671623
-0.576971 -0.0846595 -0.00061596
-0.572026 -0.0838586 -0.000693101
-0.577732 -0.0847811 -0.000605538
-0.571513 -0.0838036 -0.000668603
-0.57946 -0.0850571 -0.00058155
-0.598837 -0.0880424 -0.000439537
-0.580074 -0.085154 -0.000574562
-0.57791 -0.084814 -0.000597675
-0.568883 -0.0833957 -0.000686614
-0.567142 -0.0831325 -0.000690043
-0.578826 -0.0849677 -0.000575497
-0.56921 -0.0834485 -0.000681469
-0.592403 -0.0870039 -0.000557752
-0.585726 -0.0861403 -0.000381013
-0.578996 -0.0850019 -0.000564224
-0.573292 -0.0840751 -0.000660196
-0.568191 -0.0832965 -0.000681768
-0.569733 -0.0835324 -0.000674848
-0.560471 -0.082119 -0.000711361
-0.560471 -0.082119 -0.000711361
-0.568747 -0.0833846 -0.000675697
-0.578705 -0.0849463 -0.000580382
-0.583752 -0.0858319 -0.000402315
-0.578586 -0.08494 -0.00056553
-0.592571 -0.0869492 -0.000662921
-0.278652 -0.0402138 -0.000398143
-0.568297 -0.0833199 -0.000672709
-0.568907 -0.0834128 -0.000670401
-0.579055 -0.085007 -0.000569504
-0.320248 -0.0463954 -0.00045475
-0.583527 -0.0857985 -0.000402354
-0.571156 -0.0837518 -0.000664995
-0.567679 -0.0832286 -0.000671667
-0.481424 -0.0703464 -0.00066088
-0.46622 -0.0680862 -0.000642757
-0.567795 -0.0832476 -0.00066958
-0.357388 -0.0519209 -0.000501445
-0.202452 -0.0289114 -0.000285785
-0.582471 -0.0856272 -0.00042218
-0.412287 -0.0600786 -0.000569971
-0.582326 -0.0856081 -0.000418959
-0.578344 -0.0849135 -0.000553489
-0.355035 -0.0515815 -0.000493293
-0.327112 -0.0474352 -0.00045497
-0.582094 -0.0855716 -0.000421838
-0.583165 -0.0857457 -0.0004017
-0.583297 -0.0857671 -0.000399228
-0.312008 -0.0451972 -0.000432038
-0.571843 -0.083861 -0.000657135
-0.581304 -0.0854573 -0.000418027
-0.581304 -0.0854573 -0.000418027
-0.375104 -0.0545728 -0.000514032
-0.910352 -0.134077 -0.00119576
-0.573379 -0.0841302 -0.000604559
-0.574759 -0.0843091 -0.000640647
-0.334661 -0.0485672 -0.000460018
-0.581022 -0.0854154 -0.000418198
-0.581022 -0.0854154 -0.000418198
-0.581946 -0.085547 -0.000425648
-0.291689 -0.0421869 -0.000401469
-0.449025 -0.0655585 -0.000602102
-0.175015 -0.0248632 -0.000241632
-0.573445 -0.0841091 -0.000645385
-0.244724 -0.0352166 -0.000336298
-0.580673 -0.0853635 -0.000418706
-0.338561 -0.049154 -0.000461389
-0.35504 -0.0516023 -0.000482397
-0.590345 -0.0868073 -0.000406046
-0.581458 -0.0854722 -0.000428708
-0.206746 -0.029583 -0.000283109
-0.0914498 -0.0124616 -0.000125213
-0.491799 -0.0719279 -0.00063848
-0.184434 -0.0262771 -0.000251043
-0.184434 -0.0262771 -0.000251043
-0.388665 -0.0566036 -0.000520436
-0.251536 -0.036243 -0.000340576
0.0317898 0.00582647 4.374e-05
-0.572528 -0.0839907 -0.000624093
-0.580337 -0.0853107 -0.00042271
-0.580323 -0.0853072 -0.000424661
-0.583896 -0.085869 -0.000382236
-0.261527 -0.0377361 -0.000350096
-0.583502 -0.08577 -0.000436007
-0.423183 -0.0617407 -0.000555961
-0.368756 -0.0536584 -0.000488824
-0.58074 -0.0853743 -0.000417827
-0.451722 -0.0659822 -0.000587431
-0.584616 -0.0859293 -0.000444218
-0.582014 -0.0855742 -0.000403415
-0.0396279 -0.00479704 -5.30681e-05
-0.580695 -0.0853707 -0.000413832
-0.387651 -0.0564682 -0.000509628
-0.387651 -0.0564682 -0.000509628
-0.561948 -0.082403 -0.000638469
-0.580397 -0.0853194 -0.00042325
-0.5639 -0.0826915 -0.000641452
-0.583706 -0.0858409 -0.000382243
-0.0855038 -0.0116174 -0.000113839
-0.557557 -0.0817505 -0.000634945
-0.552018 -0.0809275 -0.000634543
-0.579816 -0.0852354 -0.000420207
-0.584288 -0.0858797 -0.00044555
-0.587106 -0.0862853 -0.000461948
-0.672156 -0.0986768 -0.00089895
-0.554605 -0.0813152 -0.000631942
-0.572697 -0.0840359 -0.000603953
-0.375588 -0.0546867 -0.00048853
0.032295 0.0058611 4.3144e-05
-0.579618 -0.0852079 -0.000417995
-0.579618 -0.0852079 -0.000417995
-0.245117 -0.0353183 -0.000321947
-0.245117 -0.0353183 -0.000321947
-0.423747 -0.0618386 -0.000546107
-0.5794 -0.0851743 -0.000419597
-0.439799 -0.0642235 -0.00056405
-0.563207 -0.0826159 -0.000610182
-0.461758 -0.0674862 -0.000587392
-0.461758 -0.0674862 -0.000587392
-0.334776 -0.048629 -0.000436493
-0.549858 -0.0806095 -0.00062998
-0.549129 -0.0804993 -0.000631671
-0.583276 -0.085727 -0.000448845
-0.565198 -0.0829139 -0.000608223
-0.550436 -0.080698 -0.000627379
-0.317301 -0.0460384 -0.000412541
-0.579415 -0.0851801 -0.000415054
-0.549273 -0.0805234 -0.000628911
-0.440736 -0.0643673 -0.000561486
-0.431671 -0.063021 -0.000551045
-0.336442 -0.0488819 -0.000435706
-0.400753 -0.0584297 -0.000514765
-0.427226 -0.0623614 -0.000545425
-0.367906 -0.0535536 -0.000474441
-0.354322 -0.0515371 -0.000457501
-0.292779 -0.0424022 -0.000379773
-0.175029 -0.0249172 -0.000230024
-0.58317 -0.0857088 -0.000452107
-0.381209 -0.0555313 -0.000488974
-0.381209 -0.0555313 -0.000488974
-0.579288 -0.085161 -0.000415519
-0.580016 -0.0852734 -0.000409658
-0.580508 -0.0853487 -0.000406564
-0.582695 -0.0856425 -0.000446901
-0.452048 -0.0660546 -0.000568148
-0.0605849 -0.00794811 -7.85269e-05
-0.579493 -0.0851922 -0.00041448
-0.579293 -0.085161 -0.00041652
-0.442794 -0.0646805 -0.000557744
-0.579979 -0.0852677 -0.000409966
-0.212164 -0.0304471 -0.000273758
-0.414253 -0.0604425 -0.000524974
-0.276494 -0.0399959 -0.000355117
-0.425433 -0.062104 -0.000536893
-0.148863 -0.0210568 -0.000191814
-0.579613 -0.0852107 -0.000413583
-0.261676 -0.0377994 -0.000335484
-0.580273 -0.0853123 -0.000408901
-0.557938 -0.0818419 -0.000598649
-0.440517 -0.0643475 -0.00055124
-0.580587 -0.0853206 -0.000458973
-0.504209 -0.0738008 -0.000622215
-0.864548 -0.127238 -0.00111887
-0.275364 -0.0398358 -0.00035083
-0.541312 -0.0793498 -0.000615357
-0.581763 -0.0855015 -0.000450196
-0.502912 -0.0736253 -0.000605833
-0.50724 -0.0742698 -0.000608696
-0.581805 -0.0855521 -0.000392184
-0.0957818 -0.0131891 -0.000122563
-0.678205 -0.0995922 -0.000874786
-0.541953 -0.0794263 -0.000633679
-0.580897 -0.085411 -0.000400666
-0.939146 -0.138306 -0.00121047
-0.58127 -0.0854321 -0.000445622
-0.579935 -0.085222 -0.000461425
-0.582342 -0.0856377 -0.00038417
-0.581625 -0.0854869 -0.000443123
-0.423169 -0.0617778 -0.000526998
-0.501065 -0.0733544 -0.000601407
-0.540634 -0.0792546 -0.00060903
-0.550198 -0.080679 -0.000610312
-0.278665 -0.0403322 -0.000352391
-0.535922 -0.0785509 -0.000610138
-0.159864 -0.0227058 -0.000202913
-0.218098 -0.0313482 -0.000275822
-0.580973 -0.0854204 -0.000403126
-0.580973 -0.0854204 -0.000403126
-0.512663 -0.0750823 -0.000606144
-0.550287 -0.080712 -0.000587734
-0.489475 -0.0716323 -0.000590921
-1.00021 -0.147366 -0.00128026
-0.183306 -0.0261893 -0.0002313
-0.53778 -0.0788315 -0.000606237
-0.547519 -0.0802929 -0.000595899
-0.540301 -0.0792084 -0.000605078
-0.580624 -0.0853711 -0.000400117
-0.147066 -0.0208136 -0.000185576
-0.535845 -0.0785431 -0.000606235
-0.581195 -0.0854493 -0.000408845
-0.549996 -0.0806659 -0.000591482
-0.548882 -0.0804984 -0.000593369
-0.538753 -0.0789791 -0.000603573
-0.0603774 -0.00795644 -7.59416e-05
-0.579076 -0.0850979 -0.000457281
-0.579212 -0.0851191 -0.00045603
-0.551122 -0.0808389 -0.000585492
-0.558063 -0.0818837 -0.000572137
-0.558063 -0.0818837 -0.000572137
-0.579515 -0.0851674 -0.000451603
-0.579515 -0.0851674 -0.000451603
-0.488221 -0.0714532 -0.00058389
-0.582186 -0.08559 -0.000417383
-0.582186 -0.08559 -0.000417383
-0.552107 -0.0809875 -0.000583405
-0.547391 -0.0802794 -0.000589927
-0.54548 -0.0799921 -0.000592533
-0.474137 -0.0693605 -0.000571104
-0.491383 -0.0719248 -0.000585375
-0.561557 -0.0824128 -0.000560992
-0.0339322 -0.0040348 -4.25339e-05
-0.485616 -0.0710676 -0.000580589
-0.537952 -0.0788625 -0.00060046
-0.994259 -0.146484 -0.00125373
-0.513367 -0.0751962 -0.000597614
-0.581427 -0.0854707 -0.000426101
-0.573959 -0.0842786 -0.00053104
-0.580575 -0.0852623 -0.00053445
-0.579367 -0.0851484 -0.000447858
-0.0264261 -0.00293083 -3.28318e-05
-0.434108 -0.0634171 -0.000528579
-0.580707 -0.0853583 -0.000433221
-0.865476 -0.127382 -0.00108654
-0.461851 -0.067541 -0.000554894
-0.435535 -0.0636325 -0.000527898
-0.548221 -0.0804093 -0.000583074
-0.509888 -0.0746804 -0.000593784
-0.495568 -0.0725162 -0.000619527
-0.547125 -0.0802457 -0.000583312
-0.580264 -0.0852875 -0.000440007
-0.580286 -0.0852918 -0.000438663
-0.536819 -0.0786982 -0.000595617
-0.544532 -0.0798585 -0.000584375
-0.434188 -0.0634369 -0.000523745
-0.434188 -0.0634369 -0.000523745
0.0237623 0.00450548 2.97468e-05
-0.534332 -0.078307 -0.000613854
-0.500973 -0.0733576 -0.000585203
-0.580691 -0.0853574 -0.000431227
-0.552971 -0.0811238 -0.000574567
-0.552971 -0.0811238 -0.000574567
-0.582975 -0.0857055 -0.000419044
-0.539038 -0.0790308 -0.00059375
-0.569267 -0.0835781 -0.000537631
-0.530373 -0.0777416 -0.000590968
-0.563759 -0.0827517 -0.000546665
-0.444545 -0.0649779 -0.000532274
-0.480418 -0.0703059 -0.000566396
-0.544447 -0.0798486 -0.000581286
-0.546811 -0.0802033 -0.000578639
-0.565143 -0.0829599 -0.000544216
-0.578505 -0.0850196 -0.000449134
-0.578505 -0.0850196 -0.000449134
-0.531111 -0.0778541 -0.000588684
-0.54529 -0.0799765 -0.000578907
-0.54529 -0.0799765 -0.000578907
-0.57835 -0.0849957 -0.000450343
-0.351669 -0.0511977 -0.000426197
-0.321996 -0.0467955 -0.000391273
-1.02496 -0.151039 -0.00127012
-0.376626 -0.0549014 -0.00045489
-0.581646 -0.0855365 -0.000381991
-0.580631 -0.0853785 -0.000392077
-0.440076 -0.0643189 -0.000524365
-0.293883 -0.0426267 -0.000357215
-0.58228 -0.0855985 -0.000424078
-0.524484 -0.0768643 -0.000589099
-0.571558 -0.0839282 -0.000525225
-0.542063 -0.0794946 -0.000580101
-0.36477 -0.0531452 -0.000439779
-0.36477 -0.0531452 -0.000439779
-0.529837 -0.0776665 -0.000586111
-0.830824 -0.122243 -0.00103036
-0.539228 -0.0790678 -0.000584553
-0.578066 -0.0849537 -0.000450132
-0.57795 -0.0849356 -0.000451441
-0.544972 -0.079932 -0.000575694
0.0107549 0.00255673 1.33696e-05
-0.349238 -0.050843 -0.000420711
-0.578152 -0.0849676 -0.000448754
-0.492937 -0.072173 -0.000570075
-0.527399 -0.0773047 -0.000584178
-0.543787 -0.0797562 -0.00057501
-0.947417 -0.139539 -0.00116669
-0.528565 -0.0774791 -0.000583613
-0.262067 -0.0379154 -0.000316568
-0.289051 -0.0419188 -0.000348271
-0.400836 -0.0585019 -0.000477397
-0.485884 -0.071127 -0.000562638
-0.328856 -0.0478245 -0.000394476
-0.530123 -0.0777137 -0.000580999
-0.81973 -0.120601 -0.00100762
-0.0532438 -0.00694571 -6.43653e-05
0.0302132 0.00543111 3.68801e-05
-0.538718 -0.0790017 -0.000574021
-0.478817 -0.0700797 -0.00055459
-0.535878 -0.0785743 -0.000578347
-0.11947 -0.0167722 -0.00014394
-0.548967 -0.0805317 -0.000570011
-0.525431 -0.0770159 -0.000579157
-0.768697 -0.113033 -0.00094046
-0.580271 -0.0852889 -0.000439738
-0.538506 -0.0789699 -0.000574337
-0.250703 -0.0362274 -0.000303461
-0.54457 -0.0798782 -0.000568915
-0.532429 -0.0780614 -0.000577039
-0.582338 -0.0856094 -0.000421011
-0.382705 -0.0558192 -0.000452574
-0.382705 -0.0558192 -0.000452574
-0.530474 -0.07777 -0.00057689
-0.980113 -0.144389 -0.00118747
-0.53392 -0.0782847 -0.000576116
-0.511817 -0.0749834 -0.000577424
-0.536668 -0.078697 -0.000573118
-0.525682 -0.0770562 -0.000576056
-0.544806 -0.0799148 -0.000566878
-0.58267 -0.0856522 -0.000429983
-0.540908 -0.0793324 -0.000569294
-0.532367 -0.0780539 -0.000575051
-0.833108 -0.122588 -0.00101194
-0.493656 -0.072288 -0.000561218
-0.930173 -0.136984 -0.00112236
-0.535421 -0.0785123 -0.00057206
-0.527173 -0.0772802 -0.000574413
-0.287826 -0.0417509 -0.000341297
-0.540005 -0.0791987 -0.000568329
-0.247728 -0.0357941 -0.000297387
-0.247728 -0.0357941 -0.000297387
-0.536244 -0.0786363 -0.000570412
-0.485344 -0.071056 -0.00055342
-0.579379 -0.0851897 -0.000396632
-0.773298 -0.11372 -0.000935963
-0.39676 -0.05791 -0.000464496
-0.570806 -0.0838451 -0.00049022
-0.571526 -0.0839547 -0.000486788
-0.261741 -0.0378847 -0.000309948
-0.387902 -0.0565965 -0.000454322
-0.522301 -0.0765561 -0.000571712
-0.981385 -0.144579 -0.0011803
-0.400553 -0.0584742 -0.000467482
-0.523861 -0.076789 -0.000571371
-0.58326 -0.0857408 -0.00042863
-0.462765 -0.0677055 -0.000531825
-0.072312 -0.00979653 -8.57712e-05
-0.570422 -0.0837875 -0.00049095
-0.403078 -0.0588507 -0.0004691
-0.759216 -0.111633 -0.000913489
-0.525208 -0.0769913 -0.000570028
-0.52919 -0.0775834 -0.000571605
-1.02385 -0.150876 -0.00122251
-0.535203 -0.078484 -0.000567163
0.0162154 0.00332676 1.94238e-05
-0.0454123 -0.00581188 -5.35369e-05
-0.799711 -0.117639 -0.000958007
-0.855272 -0.125879 -0.00102336
-0.855272 -0.125879 -0.00102336
-0.530546 -0.0777893 -0.000567677
-0.314571 -0.0457271 -0.00036785
-0.314571 -0.0457271 -0.00036785
-0.441198 -0.0645097 -0.0005066
-0.536553 -0.0786869 -0.000565226
-0.28554 -0.0414225 -0.000334334
-0.170992 -0.0244364 -0.000201123
-0.53751 -0.0788303 -0.000564356
-0.814526 -0.119837 -0.000973215
-0.762185 -0.112076 -0.000911059
-0.529379 -0.0776159 -0.000566946
-0.950754 -0.140038 -0.00113178
-0.580071 -0.0852993 -0.000387328
-0.535845 -0.0785822 -0.000564209
-0.535845 -0.0785822 -0.000564209
-0.568651 -0.0835212 -0.000495362
-0.0781626 -0.0106762 -9.16558e-05
-0.245994 -0.0355624 -0.000287187
-0.567764 -0.0833857 -0.000499897
-0.314052 -0.0456552 -0.00036494
-0.578987 -0.0851318 -0.000396275
-0.441268 -0.0645238 -0.000503536
-0.757635 -0.111403 -0.000900395
-0.331513 -0.0482462 -0.000383871
-0.580943 -0.0853902 -0.000437634
-1.00509 -0.148094 -0.00118599
-0.397499 -0.0580329 -0.000456243
-0.82794 -0.121831 -0.000973765
-0.224075 -0.0323174 -0.000260335
-0.37977 -0.0554046 -0.000436353
-0.568631 -0.0835219 -0.000490697
-0.578996 -0.0850881 -0.000455713
-0.822291 -0.120992 -0.000972283
-0.162829 -0.0232381 -0.000189173
-0.923521 -0.136002 -0.00108769
-0.373695 -0.0545056 -0.000428541
-0.431268 -0.0630446 -0.000489812
-0.545068 -0.0798971 -0.000637861
-0.390746 -0.0570348 -0.000446861
-0.406019 -0.0593002 -0.000463027
-0.105849 -0.0147936 -0.000122647
-0.846691 -0.124611 -0.00099532
-0.77084 -0.113364 -0.00090692
-0.77084 -0.113364 -0.00090692
-0.544072 -0.0798163 -0.000554276
-0.0500064 -0.00650989 -5.80407e-05
-0.573758 -0.0843012 -0.000467544
-0.0296095 -0.00349232 -3.41663e-05
-0.576306 -0.0846853 -0.000460072
-0.327684 -0.0476873 -0.000375168
-0.276399 -0.0400841 -0.000317162
-0.514309 -0.0753799 -0.000554762
-0.519428 -0.0761407 -0.000557841
-0.578902 -0.0850771 -0.000451059
-0.580532 -0.0853232 -0.00044533
-0.567102 -0.0832926 -0.000493583
-0.752955 -0.110714 -0.000881607
0.0298516 0.00532228 3.4772e-05
-0.567487 -0.0833512 -0.000491826
-0.567487 -0.0833512 -0.000491826
-0.459244 -0.0672001 -0.000513474
-0.566393 -0.0831851 -0.000496349
-0.566393 -0.0831851 -0.000496349
-0.578634 -0.0850808 -0.000394757
-0.396126 -0.0578387 -0.000448719
-0.426048 -0.0622763 -0.000480139
-0.426048 -0.0622763 -0.000480139
-0.251951 -0.0364614 -0.00028876
-0.25108 -0.0363323 -0.000287741
-0.758623 -0.111555 -0.000885685
-0.514326 -0.0753844 -0.000552666
-0.580386 -0.0853529 -0.00037849
-0.561767 -0.0824816 -0.000515953
-0.519146 -0.0761038 -0.000552383
-0.517543 -0.0758648 -0.000552273
-0.197269 -0.028358 -0.000225473
-0.155824 -0.0222135 -0.000178302
-0.370407 -0.0540279 -0.000418983
-0.514646 -0.075434 -0.000550739
-0.252768 -0.0365869 -0.00028795
-0.507668 -0.0743968 -0.000547071
-0.936032 -0.137859 -0.0010827
-0.510423 -0.074807 -0.000547909
-0.820773 -0.120773 -0.000950658
-0.518196 -0.0759652 -0.000549341
-0.512325 -0.0750907 -0.000547782
-0.578338 -0.0850374 -0.000394224
-0.415904 -0.0607784 -0.000464726
-0.277174 -0.0402091 -0.000313538
-0.347695 -0.0506647 -0.000391392
-0.50999 -0.0747453 -0.000545055
-0.568729 -0.0835236 -0.000507763
-0.0512925 -0.00672498 -5.82324e-05
-0.505384 -0.0740593 -0.000543642
-0.955914 -0.140807 -0.00109847
-0.529505 -0.0776501 -0.000550107
-0.851768 -0.125369 -0.000980627
-0.57865 -0.0850867 -0.000390216
-0.511645 -0.0749931 -0.000544142
-0.511645 -0.0749931 -0.000544142
-0.565024 -0.0829827 -0.000495401
-0.383056 -0.0559108 -0.000427904
-0.503081 -0.0737208 -0.000538825
-1.02103 -0.150459 -0.00116698
-0.994762 -0.146565 -0.00113758
-0.506074 -0.0741661 -0.000539998
-0.496851 -0.0727957 -0.000534168
-0.487631 -0.071427 -0.00052688
-0.964215 -0.142038 -0.0010998
0.0191794 0.00371318 2.18882e-05
-0.394343 -0.057588 -0.000437737
-0.578462 -0.0850585 -0.000390778
0.000933367 0.00101035 1.23073e-06
0.000933367 0.00101035 1.23073e-06
-0.498179 -0.0729953 -0.00053295
-0.733796 -0.107887 -0.000831765
-0.523021 -0.0766904 -0.000542839
-0.995194 -0.14663 -0.00112987
-0.32252 -0.0469418 -0.000359284
-0.752932 -0.110719 -0.000858341
-0.464601 -0.0680114 -0.000505348
-0.952619 -0.14032 -0.00108136
-0.952619 -0.14032 -0.00108136
0.0297259 0.00527141 3.36705e-05
-0.506563 -0.0742429 -0.000536286
-0.502436 -0.0736296 -0.000533853
-0.481697 -0.0705244 -0.000543373
-0.563827 -0.0828045 -0.000495838
-0.0572505 -0.00762506 -6.40147e-05
-0.98952 -0.145789 -0.00111556
-0.740542 -0.108884 -0.000839355
-0.405603 -0.0592652 -0.00044476
-0.505855 -0.074141 -0.000532678
-0.7993 -0.117598 -0.000897667
-0.561591 -0.0824664 -0.000502792
-0.450661 -0.0659473 -0.000488919
-0.536171 -0.0786504 -0.000541685
0.0295219 0.00523302 3.31946e-05
-0.768599 -0.113045 -0.000868698
-0.768599 -0.113045 -0.000868698
-0.0167727 -0.00162986 -1.85651e-05
-0.124752 -0.0176355 -0.000138755
-1.02357 -0.150835 -0.00114941
-1.02357 -0.150835 -0.00114941
-0.756437 -0.111243 -0.000852703
-0.456531 -0.0668194 -0.00049304
-0.496508 -0.072754 -0.000525105
-0.787749 -0.115885 -0.000886683
-0.390627 -0.0570484 -0.000426739
0.021865 0.00409235 2.44733e-05
-0.213821 -0.030833 -0.000237859
-0.807223 -0.118774 -0.000899468
-0.428072 -0.0626011 -0.00046362
-0.503062 -0.0737303 -0.000526858
-1.00849 -0.148602 -0.00112451
-0.577716 -0.0849472 -0.000391874
-0.0985867 -0.0137635 -0.000108901
-0.578085 -0.0850045 -0.000388535
-0.578085 -0.0850045 -0.000388535
-0.578085 -0.0850045 -0.000388535
0.030073 0.0053066 3.35311e-05
-0.484705 -0.0710048 -0.000513597
-0.484705 -0.0710048 -0.000513597
-0.484808 -0.0710199 -0.00051367
-0.765896 -0.112647 -0.000857628
-0.0401485 -0.00509896 -4.43568e-05
-0.254342 -0.0368508 -0.000278967
-0.75408 -0.110896 -0.000843226
-0.490829 -0.0719151 -0.000516856
-0.13008 -0.0184362 -0.000142819
-0.344739 -0.0502512 -0.000374901
-0.227979 -0.0329458 -0.000249537
-0.577603 -0.0849316 -0.000390355
-0.796096 -0.117125 -0.000886619
-0.941917 -0.138736 -0.00104534
-0.769197 -0.113138 -0.000856451
-0.0281698 -0.00333326 -3.08204e-05
-1.00745 -0.148448 -0.00111557
-1.00745 -0.148448 -0.00111557
-0.473257 -0.0693093 -0.000500947
-0.473257 -0.0693093 -0.000500947
0.0176346 0.00345418 1.9551e-05
-0.886541 -0.13053 -0.000983199
-0.753418 -0.110801 -0.000836109
-0.753418 -0.110801 -0.000836109
-0.966583 -0.142392 -0.00106854
-0.485146 -0.0710754 -0.000508947
-0.366776 -0.0535212 -0.000396056
-0.366776 -0.0535212 -0.000396056
-0.562091 -0.0825473 -0.000494743
-0.877508 -0.129192 -0.00097013
-0.49963 -0.0732264 -0.000518756
-0.81426 -0.119819 -0.00090135
-0.44694 -0.0654074 -0.000475751
-0.476295 -0.0697627 -0.000501281
-0.456959 -0.0668936 -0.00048471
-1.02177 -0.15057 -0.0011245
-0.355907 -0.0519115 -0.000383947
-0.76916 -0.113135 -0.000850792
-0.0984863 -0.0137557 -0.000107751
0.013323 0.00280847 1.47057e-05
-0.838311 -0.123384 -0.000924254
-1.00354 -0.147869 -0.0011024
-0.220856 -0.0318977 -0.000239355
-0.361365 -0.0527228 -0.000388365
-0.0185769 -0.00192043 -2.00873e-05
-0.749328 -0.110197 -0.000825709
-0.0724711 -0.00990851 -7.8661e-05
-0.577348 -0.0848944 -0.000389811
-0.485531 -0.0711363 -0.000505734
-0.55802 -0.0819322 -0.000506552
-0.312872 -0.0455371 -0.000336634
-0.312872 -0.0455371 -0.000336634
-0.393506 -0.0574891 -0.000420203
-0.578005 -0.0849959 -0.000384298
-0.953974 -0.140524 -0.00104412
-0.780318 -0.11479 -0.000857013
-0.384752 -0.0561921 -0.000410905
-0.468566 -0.0686205 -0.000490632
-0.468566 -0.0686205 -0.000490632
-0.745951 -0.109697 -0.000818151
-0.745951 -0.109697 -0.000818151
-0.580523 -0.0853105 -0.000459964
-0.750346 -0.110349 -0.000822554
-0.225543 -0.0325975 -0.000242916
-0.223477 -0.0322914 -0.000240639
-1.02336 -0.150806 -0.00111525
-0.754645 -0.110987 -0.000826127
-0.754645 -0.110987 -0.000826127
-0.579063 -0.0851605 -0.000374108
0.000915801 0.00095997 1.14582e-06
0.000915801 0.00095997 1.14582e-06
-0.946025 -0.139347 -0.00102935
-0.577224 -0.0848766 -0.000389047
-0.57729 -0.0848873 -0.000387912
-0.760622 -0.111873 -0.00082994
-0.776415 -0.114214 -0.000846789
-0.736539 -0.108305 -0.000802578
-0.741968 -0.109109 -0.000808222
-0.807715 -0.118852 -0.000879428
-0.0587126 -0.00788193 -6.30371e-05
-0.0558619 -0.00745957 -5.9946e-05
-0.871611 -0.128321 -0.000946239
-0.871611 -0.128321 -0.000946239
-0.578404 -0.0849951 -0.000461286
-0.476018 -0.0697304 -0.000492911
-0.476018 -0.0697304 -0.000492911
-0.578326 -0.0850479 -0.000378612
-0.578326 -0.0850479 -0.000378612
-1.01381 -0.149391 -0.00109377
-0.579185 -0.085112 -0.000460104
-0.577358 -0.0848376 -0.000464156
-0.0014209 0.000604789 -1.37453e-06
-0.818067 -0.120387 -0.000885641
-0.759919 -0.111771 -0.000823104
-0.482852 -0.0707468 -0.000496219
-0.787454 -0.115851 -0.000852486
-0.561307 -0.0824378 -0.000485656
-0.255263 -0.037012 -0.000271017
-0.578304 -0.0849811 -0.000460133
-0.577059 -0.084853 -0.000387985
-0.580406 -0.0852976 -0.00045417
-0.457502 -0.066988 -0.000473621
-0.559984 -0.0822371 -0.000491182
-0.00121288 0.000629789 -1.14663e-06
-0.56025 -0.0822776 -0.000490062
-0.391515 -0.0572063 -0.000410165
-0.570029 -0.0837445 -0.000471236
-0.470768 -0.0689567 -0.000484123
-0.837208 -0.123225 -0.000900446
-0.516256 -0.0757046 -0.00051741
-0.120586 -0.0170614 -0.000127642
-0.577857 -0.0849155 -0.000459068
0.0293712 0.00515742 3.13628e-05
-0.431943 -0.0632017 -0.000447549
-0.558284 -0.0819821 -0.000493911
-0.516793 -0.0757835 -0.000519009
-0.516793 -0.0757835 -0.000519009
-0.46032 -0.0674099 -0.000472765
-0.307519 -0.0447647 -0.00032172
-0.579507 -0.0851656 -0.000452202
-0.57676 -0.0848096 -0.000386935
-0.578136 -0.0849779 -0.000430256
-0.577948 -0.08493 -0.000457907
-0.777068 -0.114316 -0.000829648
0.00840633 0.00204453 9.01424e-06
-0.785512 -0.115567 -0.000837211
-1.02104 -0.150464 -0.00108224
-0.578609 -0.0850948 -0.000372245
-0.557829 -0.0819145 -0.000493813
-0.520735 -0.0763744 -0.000514551
-0.556031 -0.0816452 -0.000495982
-0.578564 -0.0850224 -0.000456508
-0.999946 -0.147338 -0.00105868
-0.564959 -0.0829916 -0.000472078
-0.566532 -0.0832284 -0.000468248
-0.505304 -0.0740842 -0.000504918
-0.579054 -0.0850959 -0.000455572
-0.567128 -0.0833199 -0.000464263
-0.554628 -0.0814352 -0.000497672
-0.561431 -0.0824651 -0.000475764
0.0131995 0.00274602 1.39421e-05
-0.56831 -0.0835001 -0.000458486
-0.709408 -0.104299 -0.000742823
-0.566602 -0.0832417 -0.000464477
-0.557879 -0.0819252 -0.000489669
-0.560528 -0.0823304 -0.00047651
-0.481644 -0.0705771 -0.000484862
-0.50133 -0.0734993 -0.000497467
-0.997223 -0.146935 -0.00104362
-0.549854 -0.0807117 -0.00051499
-0.566411 -0.0832145 -0.000463315
-0.543439 -0.0797621 -0.000507499
0.0157767 0.00312204 1.65493e-05
-0.557952 -0.0819357 -0.000490023
-0.510821 -0.0749085 -0.000502499
-0.560601 -0.0823433 -0.000473873
-0.560601 -0.0823433 -0.000473873
-0.504537 -0.0739766 -0.000498036
-0.578187 -0.0850333 -0.000370968
-0.560329 -0.0823021 -0.000474775
-0.428005 -0.0626165 -0.000444582
-0.566281 -0.0831957 -0.000462497
-0.553785 -0.0813123 -0.000494795
-0.560784 -0.0823724 -0.000471699
-0.560784 -0.0823724 -0.000471699
-0.50394 -0.0738894 -0.00049596
-0.561147 -0.0824273 -0.000470374
-0.894864 -0.131774 -0.000925749
-0.561374 -0.0824628 -0.000468126
-0.553675 -0.0812977 -0.000492645
-0.553675 -0.0812977 -0.000492645
-0.561083 -0.0824189 -0.000469083
-0.558918 -0.0820786 -0.000490651
-0.55045 -0.0808129 -0.000498841
-1.01889 -0.150146 -0.00104971
-0.562959 -0.082703 -0.00046241
-0.557164 -0.081826 -0.000480097
-0.552011 -0.0810492 -0.000493744
-0.561547 -0.08249 -0.000466453
-0.493461 -0.0723388 -0.000484751
-0.489814 -0.0717975 -0.000481963
-0.552976 -0.081194 -0.000492208
-0.545679 -0.0801018 -0.000499963
-0.561782 -0.0825259 -0.000464964
-0.559743 -0.0822043 -0.000486262
-0.562941 -0.0827014 -0.000460907
-0.464996 -0.0681166 -0.000461613
-0.47939 -0.0702525 -0.0004729
-0.561989 -0.082556 -0.000465952
-0.421981 -0.0617421 -0.000422078
-0.562847 -0.0826863 -0.00046224
-0.555684 -0.081599 -0.000489065
-0.555684 -0.081599 -0.000489065
-0.534026 -0.0783636 -0.000503278
-0.562271 -0.0825997 -0.000463581
-0.577708 -0.0849633 -0.000369758
-0.577223 -0.0848884 -0.000373832
-0.544382 -0.07991 -0.000498478
-0.563872 -0.0828397 -0.00046083
-0.548956 -0.0805934 -0.000495312
-0.562132 -0.0825781 -0.000464579
-0.5323 -0.0781087 -0.000500891
-0.434508 -0.0635907 -0.000440912
-0.547016 -0.0803047 -0.000495166
-0.594172 -0.0873668 -0.000416493
-0.594172 -0.0873668 -0.000416493
-0.408332 -0.0597234 -0.000406445
-0.561803 -0.0825271 -0.000467019
-0.577131 -0.084875 -0.000373491
-0.577367 -0.0849113 -0.000371729
-0.533887 -0.0783461 -0.00049971
-0.544012 -0.0798562 -0.000496824
-0.559301 -0.0821413 -0.000483145
-0.563186 -0.0827366 -0.000461804
-0.549238 -0.0806379 -0.000492018
-0.55519 -0.0815271 -0.00048684
-0.964161 -0.14204 -0.000975418
-0.964161 -0.14204 -0.000975418
-0.546892 -0.0802869 -0.000493999
-0.575678 -0.0846533 -0.00038199
-0.555134 -0.0815196 -0.000485947
-0.927216 -0.136569 -0.000935114
-0.54665 -0.0802524 -0.000492389
-0.423704 -0.0620075 -0.000416069
-0.378661 -0.0553342 -0.00037386
-0.559409 -0.0821601 -0.00047963
-0.535507 -0.0785916 -0.000494938
-0.535507 -0.0785916 -0.000494938
-0.555536 -0.0815806 -0.000484276
-0.562055 -0.0825599 -0.000471802
-0.562413 -0.0826137 -0.00047104
-0.547647 -0.0804026 -0.000489913
-0.57752 -0.0849377 -0.000367009
-0.541594 -0.0795008 -0.00049156
-0.367269 -0.0536509 -0.000360138
-0.529039 -0.0776322 -0.000490049
-0.547356 -0.0803605 -0.000488486
-0.0415929 -0.00540983 -4.11397e-05
-0.547625 -0.080401 -0.000488021
-0.546531 -0.0802378 -0.000488513
-0.579166 -0.0851595 -0.000395753
-0.548283 -0.0805006 -0.000486103
-0.576019 -0.0847089 -0.000375467
-0.542232 -0.0795983 -0.000488374
-0.543837 -0.0798372 -0.000488127
-0.577472 -0.0849102 -0.00039326
-0.557986 -0.0819579 -0.000468001
-0.54482 -0.0799844 -0.000487032
-0.548143 -0.0804808 -0.000484783
-0.576346 -0.0847594 -0.000372623
-0.576346 -0.0847594 -0.000372623
-0.576136 -0.0847275 -0.000373786
-0.576136 -0.0847275 -0.000373786
-0.547809 -0.0804316 -0.000484233
-0.548978 -0.0806068 -0.000482684
-0.542068 -0.0795752 -0.000486761
-0.544001 -0.0798638 -0.000485673
-0.577304 -0.0848866 -0.000391701
-0.538612 -0.0790611 -0.000486459
-0.526865 -0.0773134 -0.000484268
-0.559281 -0.0821492 -0.000469808
-0.482639 -0.0707498 -0.000459332
-0.575498 -0.0846318 -0.00037538
-0.576707 -0.0848013 -0.00038777
-0.561633 -0.0825041 -0.000463272
-0.498166 -0.0730569 -0.000465685
-0.541371 -0.0794749 -0.000482703
-0.514609 -0.0754956 -0.000475504
-0.575217 -0.0845789 -0.000389802
-0.546029 -0.0801709 -0.000479694
-0.531792 -0.0780475 -0.000483325
-0.575064 -0.084555 -0.000391364
-0.55369 -0.081315 -0.00047384
-0.576603 -0.0847873 -0.000385762
-0.551354 -0.080968 -0.000473497
-0.546316 -0.0802113 -0.00048164
-0.533867 -0.0783585 -0.000480817
-0.532757 -0.0781942 -0.000479637
-0.547005 -0.0803214 -0.00047351
-0.502158 -0.0736525 -0.000464505
-0.544522 -0.0799503 -0.000475427
-0.547527 -0.0803994 -0.000472966
-0.547527 -0.0803994 -0.000472966
-0.574895 -0.0845426 -0.000375226
-0.543251 -0.0797605 -0.000476076
-0.57618 -0.0847289 -0.000380398
-0.574465 -0.0844691 -0.000387666
-0.54647 -0.0802427 -0.000472592
-0.530548 -0.0778655 -0.000479321
-0.530548 -0.0778655 -0.000479321
-0.544305 -0.0799197 -0.000473578
-0.540178 -0.0793043 -0.000474843
-0.576095 -0.0847169 -0.000379538
-0.549531 -0.0806997 -0.000470182
-0.514359 -0.0754655 -0.000468323
-0.541941 -0.0795691 -0.000472241
-0.541941 -0.0795691 -0.000472241
-0.57569 -0.0846559 -0.000380942
-0.574547 -0.0844828 -0.000385829
-0.540535 -0.0793595 -0.000472615
-0.536312 -0.0787285 -0.000474725
-0.539355 -0.0791839 -0.000472508
-0.546666 -0.0802742 -0.000469814
-0.54429 -0.0799204 -0.000470363
-0.549862 -0.0807508 -0.000467855
-0.54339 -0.0797876 -0.000469006
-0.549008 -0.0806233 -0.000468325
-0.526268 -0.0772341 -0.00047274
-0.540005 -0.0792828 -0.000470392
-0.50089 -0.0734644 -0.000461251
-0.541451 -0.0795028 -0.00046475
-0.542069 -0.0795908 -0.00046933
-0.540923 -0.0794204 -0.000469267
-0.543867 -0.0798587 -0.000468682
-0.540187 -0.0793074 -0.000472762
-0.536898 -0.0788195 -0.000470837
-0.519156 -0.0761805 -0.000467207
-0.56537 -0.0830733 -0.000445557
-0.56537 -0.0830733 -0.000445557
-0.574598 -0.0844901 -0.000386026
-0.547183 -0.0803521 -0.000468077
-0.574633 -0.0845056 -0.000372971
-0.574744 -0.0845129 -0.000384518
-0.574744 -0.0845129 -0.000384518
-0.528665 -0.0775943 -0.000469038
-0.526256 -0.0772346 -0.000470339
-0.568005 -0.0834743 -0.000434049
-0.544732 -0.0799885 -0.000467215
-0.5346 -0.0784787 -0.00046949
-0.544425 -0.0799428 -0.00046729
-0.576379 -0.0847733 -0.000361261
-0.545704 -0.0801334 -0.000466745
-0.545704 -0.0801334 -0.000466745
-0.536541 -0.0787686 -0.000468501
-0.528478 -0.0775664 -0.000469159
-0.524879 -0.0770324 -0.000467292
-0.57453 -0.0844788 -0.000387608
-0.57434 -0.0844546 -0.000382648
-0.57434 -0.0844546 -0.000382648
-0.530884 -0.0779244 -0.000469362
-0.574189 -0.0844267 -0.000389565
-0.575113 -0.0845805 -0.000368065
-0.545072 -0.0800407 -0.000465078
-0.535354 -0.0785926 -0.00046745
-0.574418 -0.0844747 -0.000371791
-0.552099 -0.0810891 -0.000460867
-0.574062 -0.0844144 -0.000381256
-0.552821 -0.0811969 -0.000460098
-0.575153 -0.0845798 -0.000376417
-0.560576 -0.0823576 -0.000450203
-0.5571 -0.0818361 -0.000455924
-0.564881 -0.0830212 -0.000421455
-0.574459 -0.0844681 -0.000387866
-0.574251 -0.0844444 -0.00037865
-0.573784 -0.0843714 -0.000383434
-0.541729 -0.0795416 -0.000466434
-0.573752 -0.0843692 -0.000380415
-0.573925 -0.0843947 -0.000380556
-0.56019 -0.0823004 -0.000450031
-0.561748 -0.0825496 -0.000429087
-0.57188 -0.084072 -0.000405205
-0.551714 -0.0810345 -0.000457504
-0.574794 -0.0845274 -0.000375703
-0.563973 -0.0828694 -0.00044109
-0.574124 -0.0844323 -0.000370312
-0.550063 -0.0807886 -0.0004582
-0.57346 -0.0843266 -0.000379339
-0.563593 -0.0828129 -0.000441141
-0.564141 -0.0829149 -0.000417417
-0.562467 -0.0826628 -0.000421928
-0.557067 -0.0818334 -0.000453148
-0.551123 -0.0809475 -0.000456498
-0.552734 -0.081188 -0.000455177
-0.552734 -0.081188 -0.000455177
-0.563912 -0.0828617 -0.000439315
-0.549074 -0.0806429 -0.000456267
-0.561485 -0.0825185 -0.000420359
-0.574054 -0.0844236 -0.000368247
-0.561397 -0.0825065 -0.00041908
-0.564632 -0.0829735 -0.000433632
-0.551971 -0.0810769 -0.000452274
-0.563876 -0.0828583 -0.000436837
-0.544555 -0.0799713 -0.000456291
-0.561552 -0.0825306 -0.000417754
-0.561885 -0.0825807 -0.000416844
-0.570143 -0.083819 -0.000399428
-0.561138 -0.0824692 -0.0004178
-0.562491 -0.0826513 -0.000438531
-0.562491 -0.0826513 -0.000438531
-0.555136 -0.0815504 -0.000448135
-0.559157 -0.0821713 -0.000421885
-0.562895 -0.082712 -0.000437436
-0.551337 -0.0809837 -0.000451001
-0.552408 -0.0811436 -0.000450261
-0.57511 -0.0845865 -0.000359852
-0.574925 -0.0845586 -0.000360398
-0.574925 -0.0845586 -0.000360398
-0.561546 -0.0825321 -0.000414841
-0.553527 -0.0813123 -0.000447055
-0.562322 -0.082649 -0.000412589
-0.561992 -0.0825998 -0.000412983
-0.562145 -0.0826234 -0.000411694
-0.561782 -0.082569 -0.000412367
-0.559301 -0.0821755 -0.000440445
-0.558774 -0.0820968 -0.00044094
-0.560589 -0.0823685 -0.000438447
-0.56385 -0.0828807 -0.000406262
-0.560195 -0.08231 -0.000438328
-0.563393 -0.0828125 -0.000406913
-0.571517 -0.0840291 -0.000391353
-0.573405 -0.0843296 -0.000365261
-0.56348 -0.0828274 -0.000404467
-0.574078 -0.0844129 -0.00038554
-0.572787 -0.0842274 -0.000379036
-0.572787 -0.0842274 -0.000379036
-0.556599 -0.0817759 -0.000438586
-0.556599 -0.0817759 -0.000438586
-0.575319 -0.0846225 -0.000353333
-0.575117 -0.0845913 -0.000354992
-0.5753 -0.0846196 -0.000353359
-0.562355 -0.0826591 -0.000406095
-0.561654 -0.0825537 -0.000407751
-0.574573 -0.0845091 -0.000357007
-0.55985 -0.0822832 -0.00041121
-0.562067 -0.0826165 -0.000405911
-0.562067 -0.0826165 -0.000405911
-0.565604 -0.0831243 -0.000424524
-0.573284 -0.0843123 -0.000364592
-0.574726 -0.0845217 -0.000369374
-0.559605 -0.0822473 -0.000410764
-0.57369 -0.0843572 -0.000383476
-0.574797 -0.0845438 -0.000354921
-0.55934 -0.0822078 -0.000411063
-0.559822 -0.0822806 -0.000409281
-0.573161 -0.0842953 -0.00036306
-0.564615 -0.0829795 -0.000422095
-0.561629 -0.082552 -0.000405195
-0.562837 -0.0827127 -0.000425774
-0.562332 -0.0826378 -0.000425677
-0.559868 -0.0822881 -0.000408486
-0.562803 -0.0827314 -0.000398993
-0.562803 -0.0827314 -0.000398993
-0.573053 -0.0842801 -0.000361901
-0.559767 -0.0822736 -0.000407926
-0.56118 -0.0824856 -0.000405014
-0.562396 -0.08267 -0.000400204
-0.562397 -0.0826692 -0.000401287
-0.561721 -0.0825676 -0.000402829
-0.563237 -0.0827751 -0.000421952
-0.563749 -0.082852 -0.000420923
-0.562231 -0.0826448 -0.000400999
-0.559555 -0.0822257 -0.000425376
-0.561314 -0.0825073 -0.000402577
-0.562981 -0.0827608 -0.000395071
-0.562337 -0.0826619 -0.000399192
-0.57919 -0.0851697 -0.000381134
-0.57919 -0.0851697 -0.000381134
-0.561959 -0.0826049 -0.000400308
-0.563741 -0.0828759 -0.000392304
-0.560521 -0.0823897 -0.000402345
-0.574696 -0.0845337 -0.00034861
-0.562202 -0.0826425 -0.000398319
-0.562366 -0.0826674 -0.000397644
-0.573089 -0.0842892 -0.0003571
-0.571222 -0.0840053 -0.000366397
-0.572751 -0.0842384 -0.000358073
-0.571167 -0.0839964 -0.000367211
-0.573035 -0.0842822 -0.000355791
-0.571172 -0.0839962 -0.000368598
-0.562674 -0.0827152 -0.000394924
-0.561447 -0.0825138 -0.000416531
-0.571262 -0.0840136 -0.000363421
-0.572768 -0.0842419 -0.000356724
-0.572768 -0.0842419 -0.000356724
-0.562365 -0.0826692 -0.000395105
-0.571213 -0.0840029 -0.000367624
-0.563024 -0.0827689 -0.000392735
-0.564584 -0.0830062 -0.000385631
-0.572579 -0.0842142 -0.000356322
-0.564739 -0.0830298 -0.00038476
-0.564739 -0.0830298 -0.00038476
-0.57237 -0.0841834 -0.000356154
-0.56175 -0.0825792 -0.000393649
-0.557713 -0.081971 -0.000401777
-0.574253 -0.0844706 -0.000345486
-0.56395 -0.082909 -0.000389093
-0.565309 -0.083116 -0.000382431
-0.565104 -0.0830851 -0.000383219
-0.564258 -0.0829564 -0.000386966
-0.565435 -0.0831349 -0.000382081
-0.574334 -0.0844839 -0.000343785
-0.562932 -0.0827586 -0.000388395
-0.563797 -0.0828876 -0.000388147
-0.565007 -0.0830697 -0.000384042
-0.574198 -0.0844641 -0.000343498
-0.574285 -0.0844773 -0.000342979
-0.570297 -0.0838758 -0.000356826
-0.562692 -0.082724 -0.000387144
-0.562692 -0.082724 -0.000387144
-0.562095 -0.0826346 -0.000388034
-0.570218 -0.0838659 -0.000354538
-0.564106 -0.0829377 -0.000381896
-0.564106 -0.0829377 -0.000381896
-0.564578 -0.0829975 -0.000393305
-0.573875 -0.0844186 -0.000340317
-0.56464 -0.0830073 -0.000392374
-0.565763 -0.0831873 -0.000375615
-0.581948 -0.0855967 -0.000361138
-0.581948 -0.0855967 -0.000361138
-0.573607 -0.0843815 -0.00033695
-0.571462 -0.0840565 -0.000346187
-0.578297 -0.0850496 -0.000369256
-0.578636 -0.0851014 -0.000367248
-0.581438 -0.0855226 -0.000359785
-0.579763 -0.0852735 -0.000360614
-0.573388 -0.0843502 -0.000335531
-0.578038 -0.0850172 -0.000361602
-0.578188 -0.0850423 -0.000357968
-0.569556 -0.0837742 -0.000346198
-0.571041 -0.0839974 -0.000341994
-0.57338 -0.0843504 -0.000333579
-0.577023 -0.0848719 -0.000355252
-0.569806 -0.0838121 -0.000344823
-0.571084 -0.0840063 -0.000338743
-0.570103 -0.0838571 -0.000343627
-0.578693 -0.0851225 -0.000352041
-0.572578 -0.0842323 -0.00033254
-0.572578 -0.0842323 -0.00033254
-0.571968 -0.0841411 -0.000333745
-0.571601 -0.0840831 -0.000338194
-0.573132 -0.0843166 -0.000329782
-0.573132 -0.0843166 -0.000329782
-0.571437 -0.0840611 -0.000335356
-0.5731 -0.0843128 -0.000328495
-0.5731 -0.0843128 -0.000328495
-0.574021 -0.0844383 -0.000341577
-0.572436 -0.0842128 -0.000330615
-0.571847 -0.0841245 -0.000331914
