ply
format ascii 1.0
element vertex 591
property float x
property float y
property float z
end_header
-0.590665 0.0194871 -0.000318409
-0.590768 0.0194892 -0.00031704
-0.590388 0.0194795 -0.000320149
-0.589778 0.0194621 -0.000322947
-0.589778 0.0194621 -0.000322947
-0.590197 0.0194714 -0.000317693
-0.589531 0.0194557 -0.000324838
-0.588611 0.0194342 -0.00033498
-0.588484 0.0194313 -0.000336515
-0.589643 0.0194554 -0.000319955
-0.587896 0.0194127 -0.000336863
-0.602498 0.019896 -0.000368476
-0.60226 0.0198909 -0.000371617
-0.602217 0.0198869 -0.000368058
-0.589419 0.0194472 -0.000318744
-0.618495 0.0203951 -0.000371379
-0.588683 0.0194278 -0.00032419
-0.588683 0.0194278 -0.00032419
-0.588683 0.0194278 -0.00032419
-0.584239 0.0193977 -0.000466485
-0.601824 0.0198768 -0.000371411
-0.585622 0.0194416 -0.000467677
-0.58793 0.0194078 -0.000329468
-0.601433 0.0198642 -0.00037102
-0.601433 0.0198642 -0.00037102
-0.587147 0.0193885 -0.000336757
-0.601327 0.0198596 -0.000369358
-0.601162 0.0198568 -0.000372487
-0.588811 0.0194281 -0.000319497
-0.601009 0.0198536 -0.000374684
-0.586967 0.0193829 -0.000337082
-0.600972 0.0198504 -0.000371882
-0.600836 0.0198493 -0.00037622
-0.601068 0.0198517 -0.000369712
-0.570146 0.0189418 -0.00045314
-0.60081 0.0198474 -0.000374836
-0.600683 0.0198426 -0.000373912
-0.515844 0.0173806 -0.000585347
-0.562444 0.0187501 -0.000515093
-0.5866 0.019371 -0.000336876
-0.561718 0.0187306 -0.000518849
-0.600961 0.0198517 -0.000374509
-0.529836 0.0178083 -0.000586258
-0.588381 0.0194143 -0.000319484
-0.528077 0.0177532 -0.000584927
-0.517974 0.0174433 -0.000582995
-0.517974 0.0174433 -0.000582995
-0.600966 0.0198447 -0.000364692
-0.600635 0.0198399 -0.000372111
-0.533112 0.0179031 -0.000580489
-0.537363 0.018031 -0.000578317
-0.601094 0.019858 -0.000377229
-0.507221 0.0171074 -0.000574223
-0.507221 0.0171074 -0.000574223
-0.529275 0.017786 -0.000580743
-0.587978 0.019402 -0.000320363
-0.558502 0.018659 -0.00055017
-0.558309 0.0186656 -0.000564122
-0.5094 0.0171727 -0.000573092
-0.538943 0.0180777 -0.000576434
-0.529946 0.017805 -0.00057936
-0.515957 0.0173751 -0.000575809
-0.498564 0.0168355 -0.000565174
-0.534465 0.01794 -0.000575659
-0.503719 0.0169946 -0.000567712
-0.503719 0.0169946 -0.000567712
-0.478704 0.0162167 -0.000547733
-0.568769 0.0188965 -0.000451514
-0.527795 0.0177358 -0.000575219
-0.600762 0.0198406 -0.000367813
-0.386384 0.0133165 -0.000448544
-0.547643 0.0183323 -0.000561853
-0.555302 0.0185227 -0.000511147
-0.558123 0.0186028 -0.000501707
-0.570349 0.0189397 -0.000443431
-0.569112 0.0189051 -0.000448883
-0.566762 0.0188397 -0.00045963
-0.553674 0.0184768 -0.000516738
-0.362961 0.0125777 -0.000420603
-0.600737 0.0198447 -0.000374483
-0.372378 0.0128728 -0.000430733
-0.535606 0.0179712 -0.000571382
-0.547541 0.0183258 -0.000558237
-0.547541 0.0183258 -0.000558237
-0.553588 0.0184693 -0.000511833
-0.556684 0.0185542 -0.000497546
-0.541066 0.0181331 -0.000566009
-0.464786 0.0157756 -0.000530304
-0.489045 0.0165279 -0.000548395
-0.567652 0.0188625 -0.000453167
-0.572319 0.0189908 -0.000429611
-0.412788 0.0141379 -0.00047252
-0.412788 0.0141379 -0.00047252
-0.544236 0.0182239 -0.000558718
-0.555614 0.0185619 -0.000542552
-0.550495 0.0183797 -0.000519239
-0.571579 0.0189703 -0.000433419
-0.5501 0.0183697 -0.000521904
-0.569411 0.018909 -0.000442289
-0.569411 0.018909 -0.000442289
-0.347278 0.0120749 -0.000397715
-0.577032 0.0191203 -0.000405322
-0.571737 0.0189735 -0.00043116
-0.394233 0.0135507 -0.000449449
-0.536421 0.0179885 -0.000563066
-0.495456 0.0167221 -0.000549285
-0.575124 0.0190685 -0.000416225
-0.549988 0.0183635 -0.000519223
-0.346135 0.0120357 -0.000394738
-0.498023 0.0167981 -0.000547802
-0.551872 0.0184042 -0.000499135
-0.551696 0.0183986 -0.000498873
-0.546095 0.0182738 -0.000550471
-0.511883 0.0172274 -0.000555325
-0.463548 0.0157207 -0.000518281
-0.579248 0.0191794 -0.000391452
-0.579248 0.0191794 -0.000391452
-0.400023 0.0137278 -0.000452636
-0.400023 0.0137278 -0.000452636
-0.549146 0.0183245 -0.000505425
-0.554201 0.0184769 -0.00049687
-0.549789 0.0183415 -0.00050181
-0.585614 0.0193427 -0.000341282
-0.504134 0.0169843 -0.000548785
-0.446843 0.0151938 -0.000499669
-0.568948 0.0188929 -0.000440634
-0.549465 0.0183305 -0.000500878
-0.565336 0.0187916 -0.000456122
-0.563205 0.0187314 -0.00046443
-0.572278 0.0189853 -0.00042461
-0.569875 0.0189184 -0.000435911
-0.569875 0.0189184 -0.000435911
-0.569875 0.0189184 -0.000435911
-0.47996 0.0162294 -0.000529213
-0.495405 0.0167103 -0.000540895
-0.443361 0.0150817 -0.000494105
-0.576221 0.0190947 -0.000405575
-0.576221 0.0190947 -0.000405575
-0.550238 0.0183521 -0.000498333
-0.4756 0.0160915 -0.00052386
-0.548964 0.0183136 -0.000499459
-0.548964 0.0183136 -0.000499459
-0.577887 0.0191396 -0.00039572
-0.499695 0.0168407 -0.000541228
-0.561338 0.0186767 -0.000469525
-0.576056 0.0190898 -0.000406048
-0.418434 0.0142974 -0.000466289
-0.548554 0.0183015 -0.000500512
-0.488054 0.0164765 -0.000531548
-0.488054 0.0164765 -0.000531548
-0.549415 0.0183249 -0.000496395
-0.567514 0.0188495 -0.00044293
-0.50948 0.0171419 -0.000544172
-0.50948 0.0171419 -0.000544172
-0.565637 0.0187974 -0.000451739
-0.565637 0.0187974 -0.000451739
-0.549019 0.0183132 -0.000497113
-0.546195 0.0182685 -0.000541164
-0.548629 0.0183021 -0.000498478
-0.567811 0.0188578 -0.000441681
-0.504064 0.0169731 -0.000540661
-0.575072 0.0190602 -0.000408012
-0.527301 0.0176923 -0.00054591
-0.546983 0.0182566 -0.000505117
-0.365716 0.0126352 -0.000406899
-0.502937 0.0169366 -0.000538505
-0.513838 0.017275 -0.000544253
-0.567331 0.0188429 -0.000441867
-0.463439 0.015704 -0.000507287
-0.549082 0.0183139 -0.000495777
-0.490967 0.0165629 -0.000529934
-0.427131 0.0145654 -0.000471338
-0.578083 0.0191432 -0.00039284
-0.567102 0.0188365 -0.000443128
-0.517444 0.0173847 -0.000543287
-0.573678 0.0190202 -0.000413244
-0.49429 0.0166655 -0.000531092
-0.584831 0.0193158 -0.000339115
-0.511001 0.0171846 -0.000540362
-0.511001 0.0171846 -0.000540362
-0.586457 0.0193521 -0.000319006
-0.515262 0.0173162 -0.00054156
-0.575849 0.0190795 -0.000401434
-0.546159 0.0182282 -0.000502228
-0.547522 0.0182904 -0.000521289
-0.521014 0.0174931 -0.000542192
-0.521014 0.0174931 -0.000542192
-0.548579 0.0182973 -0.000494638
-0.517956 0.0173985 -0.000541352
-0.566764 0.0188262 -0.000443633
-0.545157 0.0181989 -0.000504549
-0.561823 0.0186859 -0.000462266
-0.561823 0.0186859 -0.000462266
-0.574654 0.0190454 -0.000406095
-0.514472 0.0172894 -0.000538969
-0.546582 0.0182508 -0.000508914
-0.520984 0.0174902 -0.000540142
-0.54638 0.0182311 -0.000497771
-0.453598 0.0153884 -0.000491937
-0.567286 0.0188398 -0.000440186
-0.569249 0.0188946 -0.000431344
-0.562886 0.018716 -0.000458468
-0.579142 0.0191697 -0.000383728
-0.570154 0.0189194 -0.000426594
-0.504621 0.0169821 -0.000532723
-0.546639 0.0182373 -0.000495662
-0.478962 0.0161806 -0.000513497
-0.225302 0.0082045 -0.00024726
-0.504574 0.0169788 -0.000530722
-0.576615 0.0190989 -0.000395402
-0.456347 0.0154714 -0.000492199
-0.516898 0.0173616 -0.000536467
-0.559134 0.0186072 -0.00046955
-0.57631 0.0190898 -0.000396154
-0.533123 0.0178619 -0.000537984
-0.490022 0.0165253 -0.000520792
-0.564447 0.0187591 -0.000451254
-0.546604 0.0182347 -0.000493777
-0.549457 0.0183551 -0.000525216
-0.522675 0.0175389 -0.000536738
-0.419838 0.014323 -0.000454828
-0.50929 0.0171243 -0.000531998
-0.50929 0.0171243 -0.000531998
-0.56694 0.018828 -0.000439121
-0.56694 0.018828 -0.000439121
-0.575918 0.0190794 -0.00039881
-0.568431 0.0188691 -0.000431737
-0.241456 0.00870997 -0.000263911
-0.565872 0.0187976 -0.000443039
-0.535157 0.0179231 -0.00053647
-0.535157 0.0179231 -0.00053647
-0.50483 0.0169852 -0.000528993
-0.570547 0.0189283 -0.000422243
-0.559757 0.0186241 -0.000466312
-0.547542 0.0182609 -0.000490363
-0.561349 0.0186692 -0.000460261
-0.494325 0.0166583 -0.000522319
-0.494325 0.0166583 -0.000522319
-0.546198 0.0182221 -0.000494105
-0.564052 0.0187454 -0.000449441
-0.515554 0.0173173 -0.000533052
-0.461114 0.015617 -0.000493529
-0.565543 0.0187876 -0.000443701
-0.565062 0.0187741 -0.000445688
-0.566127 0.0188039 -0.000441106
-0.566127 0.0188039 -0.000441106
-0.392425 0.0134601 -0.000424987
-0.471594 0.0159458 -0.000503134
-0.57394 0.0190229 -0.000406557
-0.576263 0.0190875 -0.000395198
-0.573623 0.019014 -0.000407933
-0.573201 0.0190021 -0.000409629
-0.50826 0.0170905 -0.000529389
-0.545653 0.0182053 -0.000494331
-0.559808 0.0186245 -0.000464845
-0.562386 0.0186982 -0.000456017
-0.562565 0.0187025 -0.000454221
-0.522988 0.0175454 -0.000533483
-0.473556 0.0160058 -0.000503386
-0.293574 0.0103476 -0.000318566
-0.514602 0.0172871 -0.000531885
-0.386137 0.0132601 -0.000416844
-0.526895 0.0176655 -0.000533267
-0.515744 0.0173215 -0.000531317
-0.567309 0.0188362 -0.00043494
-0.567831 0.0188508 -0.000432641
-0.547468 0.0182573 -0.000488982
-0.571857 0.0189636 -0.000414813
-0.573027 0.0189965 -0.000409621
-0.573027 0.0189965 -0.000409621
-0.453528 0.0153768 -0.000484335
-0.546102 0.0182222 -0.000497138
-0.546602 0.0182356 -0.00049553
-0.546602 0.0182356 -0.00049553
-0.562601 0.0187032 -0.000453938
-0.562601 0.0187032 -0.000453938
-0.56363 0.0187324 -0.000449964
-0.403796 0.0138137 -0.00043398
-0.564648 0.0187609 -0.000445662
-0.523333 0.0175547 -0.000531828
-0.383382 0.0131723 -0.000412302
-0.4358 0.0148189 -0.000465961
-0.524693 0.0175965 -0.000531919
-0.566499 0.0188126 -0.000437371
-0.582556 0.0192559 -0.00035562
-0.517518 0.0173749 -0.00053028
-0.56714 0.018831 -0.000435186
-0.377269 0.0129791 -0.000405923
-0.341406 0.0118507 -0.000367992
-0.546193 0.0182189 -0.000490521
-0.24667 0.00886433 -0.000266491
-0.508241 0.0170874 -0.000525987
-0.519544 0.0174367 -0.000529413
-0.477317 0.0161196 -0.000502731
-0.57844 0.0191466 -0.000382946
-0.57844 0.0191466 -0.000382946
-0.582434 0.019245 -0.000346347
-0.567718 0.0188463 -0.00043153
-0.521307 0.0174904 -0.000529548
-0.211206 0.00774366 -0.000227586
-0.571768 0.0189598 -0.000413676
-0.566836 0.0188211 -0.000435004
-0.566836 0.0188211 -0.000435004
-0.567566 0.0188414 -0.000431581
-0.546507 0.0182286 -0.000490553
-0.585541 0.0193225 -0.000318809
-0.547742 0.0182612 -0.00048315
-0.518341 0.0173963 -0.000525762
-0.547491 0.0182548 -0.000485119
-0.548781 0.0182926 -0.000482324
-0.378172 0.0130003 -0.000402701
-0.521412 0.0174913 -0.000526897
-0.577643 0.0191231 -0.000385152
-0.569908 0.0189063 -0.000420428
-0.567673 0.0188435 -0.000429912
-0.567673 0.0188435 -0.000429912
-0.571693 0.0189564 -0.000412503
-0.54708 0.0182444 -0.000488189
-0.549909 0.0183577 -0.000512531
-0.529632 0.0177433 -0.000526318
-0.385296 0.013223 -0.000409297
-0.385296 0.013223 -0.000409297
-0.54617 0.0182187 -0.000490803
-0.581985 0.0192309 -0.000346664
-0.577028 0.0191052 -0.000387154
-0.547135 0.0182433 -0.000484408
-0.547135 0.0182433 -0.000484408
-0.583583 0.0192743 -0.000337213
-0.533539 0.0178618 -0.000524281
-0.440519 0.0149559 -0.000463019
-0.548327 0.0182787 -0.000482621
-0.548327 0.0182787 -0.000482621
-0.216019 0.00788485 -0.00022997
-0.353904 0.0122331 -0.000375324
-0.478211 0.0161398 -0.000497164
-0.377456 0.0129732 -0.000399578
-0.547033 0.0182416 -0.00048641
-0.547033 0.0182416 -0.00048641
-0.547828 0.0182956 -0.000514488
-0.539583 0.0180466 -0.000522256
-0.581225 0.019222 -0.000366662
-0.546484 0.0182253 -0.000487252
-0.373187 0.012838 -0.000394588
-0.548669 0.0182864 -0.000478988
-0.548669 0.0182864 -0.000478988
-0.571556 0.0189512 -0.000411412
-0.57332 0.0190007 -0.000403463
-0.57332 0.0190007 -0.000403463
-0.444018 0.0150639 -0.000464718
-0.525462 0.0176118 -0.000522423
-0.547633 0.0182569 -0.000482398
-0.526464 0.0176423 -0.000522344
-0.566136 0.0187981 -0.000433926
-0.204911 0.00753012 -0.000216978
-0.204911 0.00753012 -0.000216978
-0.548405 0.0182794 -0.000480401
-0.571644 0.0189529 -0.000410051
-0.446957 0.0151537 -0.000465902
-0.536788 0.0179576 -0.000519162
-0.546408 0.0182208 -0.000484702
-0.567518 0.0188366 -0.000427604
-0.533081 0.0178431 -0.000519346
-0.57149 0.0189482 -0.000410432
-0.558469 0.0185779 -0.000459643
-0.546998 0.0182367 -0.000481994
-0.514589 0.0172704 -0.000514129
-0.581963 0.019229 -0.000345364
-0.270647 0.00959619 -0.000283635
-0.568664 0.0188681 -0.000421843
-0.445191 0.0150932 -0.000460508
-0.566656 0.0188107 -0.000429252
-0.566656 0.0188107 -0.000429252
-0.532137 0.0178228 -0.00051831
-0.532137 0.0178228 -0.00051831
-0.537943 0.0179892 -0.000514832
-0.233997 0.00843855 -0.000244965
-0.258325 0.00920578 -0.000270268
-0.542937 0.0181428 -0.000512282
-0.566408 0.0188036 -0.000430264
-0.534533 0.0178848 -0.000515862
-0.482634 0.0162683 -0.000491869
-0.56699 0.0188199 -0.000427461
-0.567963 0.018848 -0.000424503
-0.567522 0.0188356 -0.000426394
-0.547186 0.01824 -0.000478725
-0.455565 0.0154181 -0.000467191
-0.583994 0.0192782 -0.000325418
-0.583994 0.0192782 -0.000325418
-0.563533 0.0187212 -0.000440274
-0.569256 0.0188834 -0.00041774
-0.570167 0.0189092 -0.000413915
-0.569042 0.0188774 -0.000418678
-0.566163 0.0187959 -0.000430195
-0.567855 0.018844 -0.000423655
-0.257394 0.00917171 -0.000267545
-0.328318 0.0114094 -0.000340409
-0.328318 0.0114094 -0.000340409
-0.569453 0.0188884 -0.000416172
-0.485785 0.0163639 -0.000491395
-0.485785 0.0163639 -0.000491395
-0.568355 0.0188584 -0.000422106
-0.568842 0.0188714 -0.000419136
-0.48338 0.0162878 -0.000488931
-0.48338 0.0162878 -0.000488931
-0.480183 0.0161874 -0.000486295
-0.570283 0.0189119 -0.000412934
-0.477059 0.0160888 -0.000483274
-0.44261 0.0150041 -0.000452268
-0.534954 0.0178934 -0.000510772
-0.583199 0.0192619 -0.000337317
-0.583199 0.0192619 -0.000337317
-0.567203 0.0188247 -0.00042537
-0.567203 0.0188247 -0.00042537
-0.566625 0.0188079 -0.000427131
-0.566625 0.0188079 -0.000427131
-0.566035 0.0187912 -0.000429438
-0.568278 0.0188544 -0.000420042
-0.568278 0.0188544 -0.000420042
-0.57077 0.0189252 -0.000410279
-0.432916 0.0146987 -0.000442317
-0.288938 0.0101615 -0.000297825
-0.569842 0.0188982 -0.000413112
-0.538889 0.0180117 -0.000507178
-0.419219 0.014265 -0.000427589
-0.569666 0.0188931 -0.000413816
-0.242178 0.00868453 -0.000249054
-0.570492 0.0189167 -0.00041074
-0.57095 0.0189298 -0.000408937
-0.309782 0.0108161 -0.00031766
-0.534991 0.0178965 -0.00051176
-0.281348 0.00991765 -0.000288486
-0.574002 0.0190161 -0.000396227
-0.549899 0.0183227 -0.000475495
-0.549899 0.0183227 -0.000475495
-0.584513 0.019288 -0.000316978
-0.329399 0.0114332 -0.000336454
-0.573429 0.0189992 -0.0003977
-0.480636 0.0161948 -0.000480662
-0.511459 0.0171593 -0.000500428
-0.361657 0.0124503 -0.000368234
-0.373259 0.0128164 -0.000379756
-0.574036 0.0190159 -0.000394508
-0.567478 0.0188311 -0.000422718
-0.555055 0.0184737 -0.000463183
-0.568857 0.0188696 -0.000416464
-0.509305 0.0170911 -0.000498349
-0.421926 0.0143441 -0.000426271
-0.334241 0.011583 -0.000339657
-0.581066 0.0192019 -0.000347384
-0.284934 0.0100261 -0.000289643
-0.308352 0.0107649 -0.000313208
-0.366066 0.0125863 -0.000370742
-0.57464 0.019033 -0.000392066
-0.43659 0.0148044 -0.000438785
-0.487923 0.0164191 -0.000482578
-0.572515 0.0189724 -0.000400447
-0.476162 0.0160492 -0.000472684
-0.574574 0.0190316 -0.000393155
-0.509233 0.0170846 -0.00049464
-0.555299 0.0184788 -0.000460166
-0.571378 0.01894 -0.000404836
-0.324004 0.0112549 -0.000326702
-0.456545 0.0154298 -0.000454061
-0.347663 0.0120012 -0.000349865
-0.484803 0.0163167 -0.000477067
-0.466987 0.015758 -0.000462919
-0.574072 0.0190159 -0.00039323
-0.583743 0.0192644 -0.000318152
-0.462911 0.015629 -0.000458844
-0.553805 0.0184557 -0.000485062
-0.451203 0.0152599 -0.000448029
-0.57411 0.0190168 -0.00039283
-0.571711 0.0189488 -0.000402881
-0.477739 0.0160914 -0.000468761
-0.450664 0.0152405 -0.000445771
-0.292715 0.0102622 -0.000292922
-0.401962 0.0137086 -0.000400145
-0.574004 0.0190138 -0.000393304
-0.438371 0.0148527 -0.000434224
-0.453311 0.0153222 -0.000447019
-0.453311 0.0153222 -0.000447019
-0.466194 0.0157277 -0.00045821
-0.486234 0.0163556 -0.000473508
-0.440485 0.0149175 -0.00043475
-0.541249 0.0180788 -0.00049766
-0.559998 0.0186355 -0.00046911
-0.471245 0.015881 -0.000458582
-0.553999 0.0184567 -0.000479217
-0.476125 0.0160334 -0.000462014
-0.556859 0.0185479 -0.000482898
-0.556859 0.0185479 -0.000482898
-0.559564 0.018623 -0.000471095
-0.481235 0.0161903 -0.000462423
-0.560353 0.0186415 -0.000462468
-0.434443 0.014718 -0.000422172
-0.554419 0.0184671 -0.000475763
-0.478846 0.016114 -0.000459266
-0.560496 0.0186471 -0.000464202
-0.474651 0.0159808 -0.00045557
-0.561788 0.018685 -0.00046119
-0.561788 0.018685 -0.00046119
-0.483764 0.0162655 -0.000460493
-0.581397 0.0192025 -0.000335183
-0.556671 0.0185342 -0.000471854
-0.581499 0.0192003 -0.00032802
-0.469976 0.0158278 -0.000446847
-0.581635 0.0192061 -0.000330026
-0.583039 0.0192386 -0.000314152
-0.554655 0.0184689 -0.000468687
-0.581291 0.0191928 -0.000326959
-0.470565 0.0158413 -0.000442802
-0.471094 0.0158561 -0.000441696
-0.582818 0.019231 -0.000313555
-0.561094 0.0186589 -0.000455561
-0.552556 0.0184038 -0.000468703
-0.552572 0.0184016 -0.00046559
-0.552572 0.0184016 -0.00046559
-0.411333 0.0139755 -0.000385537
-0.58109 0.0192111 -0.000359024
-0.55288 0.018409 -0.000462811
-0.581596 0.0192051 -0.000330419
-0.580664 0.0192026 -0.000365734
-0.580624 0.0192021 -0.000366726
-0.559936 0.0186206 -0.000453084
-0.581287 0.0192157 -0.000357126
-0.581365 0.0192199 -0.000359432
-0.55395 0.0184413 -0.000461465
-0.58148 0.0192226 -0.000358253
-0.556932 0.0185346 -0.000461532
-0.580954 0.0192089 -0.000362046
-0.555199 0.0184831 -0.000465545
-0.5814 0.0192176 -0.000354807
-0.5814 0.0192176 -0.000354807
-0.534338 0.0178387 -0.00046882
-0.532969 0.0177966 -0.000469183
-0.580079 0.019164 -0.00034001
-0.559808 0.0186165 -0.000452708
-0.58002 0.0191594 -0.00033648
-0.559066 0.0185936 -0.000452555
-0.560774 0.0186442 -0.000449779
-0.437543 0.0147949 -0.00040132
-0.580072 0.0191593 -0.000334164
-0.580375 0.0191612 -0.000324068
-0.580361 0.0191606 -0.000323918
-0.580575 0.0191992 -0.000365146
-0.580652 0.0192006 -0.000363726
-0.579992 0.0191558 -0.000332896
-0.580552 0.0191991 -0.000365869
-0.560945 0.0186473 -0.000446658
-0.56074 0.0186384 -0.000443323
-0.560355 0.0186299 -0.000447899
-0.559424 0.0186038 -0.000451197
-0.580763 0.019209 -0.00036999
-0.580234 0.019156 -0.000323188
-0.558366 0.0185729 -0.000452988
-0.580781 0.0191762 -0.000326922
-0.580236 0.0191613 -0.000329857
-0.580372 0.0191615 -0.000324737
-0.579479 0.0191399 -0.000333564
-0.580041 0.0191494 -0.000322648
-0.579921 0.0191594 -0.000340554
-0.562351 0.0186855 -0.000438273
-0.561565 0.0186649 -0.000443693
-0.579533 0.0191411 -0.000332863
-0.579533 0.0191411 -0.000332863
-0.579951 0.0191522 -0.000330157
-0.579532 0.0191449 -0.000337699
-0.580575 0.0191674 -0.000324145
-0.579862 0.0191522 -0.000333846
-0.581385 0.0191816 -0.000309094
-0.579682 0.0191359 -0.000320198
-0.579079 0.0191266 -0.000332896
-0.579047 0.0191251 -0.000332349
-0.579699 0.0191349 -0.000318236
-0.579251 0.01913 -0.000330267
-0.57913 0.019127 -0.000331389
-0.580618 0.0191584 -0.000310784
-0.579208 0.0191294 -0.000331329
-0.580882 0.0191643 -0.000307565
-0.580076 0.0191432 -0.000313462
-0.579375 0.0191328 -0.000328845
-0.579387 0.0191252 -0.000318534
-0.579287 0.019131 -0.000330212
-0.579287 0.019131 -0.000330212
-0.579347 0.0191339 -0.000331471
-0.581406 0.0191963 -0.000327412
-0.579779 0.0191358 -0.000316015
-0.581123 0.0191719 -0.000307945
-0.581123 0.0191719 -0.000307945
-0.580973 0.0191671 -0.000307574
-0.593826 0.0195792 -0.000321232
