ply
format ascii 1.0
element vertex 591
property float x
property float y
property float z
end_header
-0.590665 -30.3105 1855.05
-0.590768 -30.3125 1863.39
-0.590388 -30.3081 1844.1
-0.589778 -30.3039 1826.23
-0.589778 -30.3039 1826.23
-0.590197 -30.311 1857.76
-0.589531 -30.3012 1814.85
-0.588611 -30.2874 1757.15
-0.588484 -30.2854 1748.76
-0.589643 -30.3074 1842.89
-0.587896 -30.2842 1745.21
-0.602498 -30.2823 1635.1
-0.60226 -30.2783 1620.65
-0.602217 -30.2821 1636.2
-0.589419 -30.3087 1849.19
-0.618495 -30.3256 1665.4
-0.588684 -30.301 1815.86
-0.588684 -30.301 1815.86
-0.588684 -30.301 1815.86
-0.584239 -30.119 1252.43
-0.601824 -30.2777 1620.37
-0.585622 -30.122 1252.19
-0.58793 -30.2935 1784.48
-0.601433 -30.2772 1621.03
-0.601433 -30.2772 1621.03
-0.587147 -30.2832 1743.53
-0.601327 -30.2789 1628.03
-0.601162 -30.2749 1613.91
-0.588811 -30.3072 1842.93
-0.601009 -30.2721 1604.04
-0.586967 -30.2827 1741.32
-0.600972 -30.2751 1616.03
-0.600836 -30.2699 1597.03
-0.601068 -30.2779 1625.77
-0.570146 -30.0998 1258.21
-0.60081 -30.2715 1602.86
-0.600683 -30.2723 1606.48
-0.515844 -29.6793 881.262
-0.562444 -29.9968 1091.93
-0.5866 -30.2823 1741.29
-0.561718 -29.9893 1082.62
-0.600961 -30.2725 1604.67
-0.529836 -29.7522 903.76
-0.588381 -30.3066 1841.66
-0.528077 -29.7454 902.808
-0.517974 -29.6947 888.471
-0.517974 -29.6947 888.471
-0.600966 -30.2834 1647.87
-0.600635 -30.2741 1614.13
-0.533112 -29.7776 918.384
-0.537363 -29.8022 929.185
-0.601094 -30.2697 1593.45
-0.507221 -29.6492 883.316
-0.507221 -29.6492 883.316
-0.529275 -29.758 911.376
-0.587978 -30.305 1835.35
-0.558502 -29.9321 1015.14
-0.558309 -29.9111 989.695
-0.5094 -29.6634 888.863
-0.538943 -29.8126 934.961
-0.529946 -29.7638 914.709
-0.515957 -29.6953 896.056
-0.498564 -29.6138 882.143
-0.534465 -29.7918 928.441
-0.503719 -29.64 887.279
-0.503719 -29.64 887.279
-0.478704 -29.5192 873.972
-0.568769 -30.0993 1259.69
-0.527795 -29.7588 917.555
-0.600762 -30.2795 1633.34
-0.386384 -29.0153 861.418
-0.547643 -29.8731 974.708
-0.555302 -29.9796 1086.38
-0.558123 -30.0021 1112.45
-0.570349 -30.1139 1286.22
-0.569112 -30.1036 1267.84
-0.566762 -30.0834 1233.08
-0.553674 -29.966 1071.48
-0.362961 -28.8576 862.954
-0.600737 -30.2719 1604.18
-0.372378 -28.9275 864.521
-0.535606 -29.8036 937.387
-0.547541 -29.8782 980.839
-0.547541 -29.8782 980.839
-0.553588 -29.9733 1081.58
-0.556684 -30.0031 1118.86
-0.541066 -29.8386 955.931
-0.464786 -29.4623 876.451
-0.489045 -29.5892 891.776
-0.567652 -30.0943 1252.63
-0.572319 -30.1366 1332.18
-0.412788 -29.1972 873.589
-0.412788 -29.1972 873.589
-0.544236 -29.8639 974.08
-0.555614 -29.933 1024.07
-0.550495 -29.9512 1060.2
-0.571579 -30.1302 1318.77
-0.5501 -29.9461 1054.03
-0.569411 -30.1132 1287.42
-0.569411 -30.1132 1287.42
-0.347278 -28.7603 873.181
-0.577032 -30.179 1423.64
-0.571737 -30.1334 1326.04
-0.394233 -29.0932 877.147
-0.536421 -29.8203 952.679
-0.495456 -29.6289 902.001
-0.575124 -30.161 1381.76
-0.549988 -29.95 1059.25
-0.346135 -28.759 876.874
-0.498023 -29.6477 909.131
-0.551872 -29.9863 1105.66
-0.551696 -29.9858 1105.88
-0.546095 -29.884 992.05
-0.511883 -29.7133 921.772
-0.463548 -29.4865 894.394
-0.579249 -30.2015 1479.74
-0.579249 -30.2015 1479.74
-0.400023 -29.1397 883.762
-0.400023 -29.1397 883.762
-0.549146 -29.9678 1086.5
-0.554201 -29.9942 1115.38
-0.549789 -29.9751 1095.61
-0.585614 -30.2757 1715.92
-0.504134 -29.6825 918.637
-0.446843 -29.4097 894.278
-0.568948 -30.1144 1291.2
-0.549465 -29.9755 1097
-0.565336 -30.0845 1239.44
-0.563205 -30.0674 1212.68
-0.572278 -30.1433 1347.77
-0.569875 -30.1228 1307.32
-0.569875 -30.1228 1307.32
-0.569875 -30.1228 1307.32
-0.47996 -29.5735 906.932
-0.495405 -29.6467 915.898
-0.443361 -29.3972 897.3
-0.576221 -30.1771 1420.75
-0.576221 -30.1771 1420.75
-0.550238 -29.9822 1104.16
-0.4756 -29.556 907.877
-0.548964 -29.9758 1099.12
-0.548964 -29.9758 1099.12
-0.577887 -30.1933 1460.34
-0.499695 -29.6718 923.261
-0.561338 -30.0555 1195.55
-0.576056 -30.1762 1418.69
-0.418434 -29.2664 897.369
-0.548554 -29.9731 1095.99
-0.488054 -29.6213 918.175
-0.488054 -29.6213 918.175
-0.549415 -29.9819 1106.81
-0.567514 -30.1077 1281.27
-0.50948 -29.7212 936.248
-0.50948 -29.7212 936.248
-0.565637 -30.0912 1252.13
-0.565637 -30.0912 1252.13
-0.549019 -29.9795 1104.41
-0.546195 -29.8981 1009.3
-0.548629 -29.9763 1100.61
-0.567811 -30.1101 1285.57
-0.504064 -29.6978 932.31
-0.575072 -30.1713 1409.45
-0.527301 -29.8039 965.913
-0.546983 -29.9608 1082.88
-0.365716 -28.9442 898.79
-0.502937 -29.6952 933.95
-0.513838 -29.7446 944.117
-0.567331 -30.1085 1283.94
-0.463439 -29.5109 913.565
-0.549082 -29.9817 1107.52
-0.490967 -29.6425 926.468
-0.427131 -29.3251 906.209
-0.578083 -30.1978 1471.55
-0.567102 -30.1065 1279.77
-0.517444 -29.7643 952.432
-0.573678 -30.1616 1388.23
-0.49429 -29.6595 930.705
-0.584831 -30.2774 1724.58
-0.511001 -29.736 945.664
-0.511001 -29.736 945.664
-0.586457 -30.3045 1838.39
-0.515262 -29.7562 951.44
-0.575849 -30.1816 1434.48
-0.546159 -29.9624 1087.47
-0.547522 -29.9349 1050.32
-0.521014 -29.784 960.939
-0.521014 -29.784 960.939
-0.548579 -29.9815 1109.05
-0.517956 -29.7702 956.782
-0.566764 -30.105 1277.55
-0.545157 -29.9554 1080.49
-0.561823 -30.0668 1215.37
-0.561823 -30.0668 1215.37
-0.574654 -30.1729 1415.07
-0.514472 -29.7564 954.548
-0.546582 -29.9485 1074.02
-0.520984 -29.7872 964.53
-0.54638 -29.9697 1097.65
-0.453598 -29.4765 922.065
-0.567287 -30.111 1288.74
-0.569249 -30.1276 1319.71
-0.562886 -30.0751 1227.75
-0.579142 -30.2113 1509.25
-0.570154 -30.136 1336.53
-0.504621 -29.7149 947.248
-0.546639 -29.9737 1102.85
-0.478962 -29.601 932.746
-0.225302 -27.4608 911.196
-0.504574 -29.7178 950.733
-0.576615 -30.191 1458.3
-0.456347 -29.4962 927.16
-0.516898 -29.7725 963.523
-0.559134 -30.0493 1190.79
-0.57631 -30.1894 1454.76
-0.533123 -29.8469 990.964
-0.490022 -29.6528 940.917
-0.564447 -30.0893 1250.84
-0.546604 -29.9761 1106.99
-0.549457 -29.9349 1046.15
-0.522675 -29.8009 973.799
-0.419838 -29.3122 923.069
-0.50929 -29.7407 957.314
-0.50929 -29.7407 957.314
-0.56694 -30.1115 1291.08
-0.56694 -30.1115 1291.08
-0.575918 -30.1853 1444.09
-0.568431 -30.1249 1316.61
-0.241456 -27.7218 914.915
-0.565872 -30.1035 1277.25
-0.535157 -29.8585 997.553
-0.535157 -29.8585 997.553
-0.50483 -29.7218 954.324
-0.570547 -30.1425 1351.23
-0.559757 -30.0555 1200.39
-0.547542 -29.9844 1116.6
-0.561349 -30.0682 1219.63
-0.494325 -29.6744 946.403
-0.494325 -29.6744 946.403
-0.546198 -29.9744 1105.43
-0.564052 -30.0902 1255.01
-0.515555 -29.7711 967.174
-0.461114 -29.5263 934.32
-0.565543 -30.1019 1274.6
-0.565061 -30.098 1267.84
-0.566127 -30.1068 1283.42
-0.566127 -30.1068 1283.42
-0.392425 -29.1547 923.381
-0.471594 -29.5747 937.311
-0.57394 -30.171 1411.71
-0.576263 -30.1906 1458.16
-0.573623 -30.1684 1406.17
-0.573201 -30.1652 1399.32
-0.50826 -29.7393 960.088
-0.545653 -29.9722 1103.82
-0.559808 -30.0576 1204.29
-0.562386 -30.077 1233.26
-0.562565 -30.0797 1238.53
-0.522988 -29.8077 980.327
-0.473556 -29.5865 940.742
-0.293574 -28.3711 921.549
-0.514602 -29.768 967.506
-0.386137 -29.1203 926.334
-0.526895 -29.8262 988.051
-0.515744 -29.7747 970.69
-0.567309 -30.118 1304.34
-0.567831 -30.1224 1312.48
-0.547468 -29.9862 1119.61
-0.571857 -30.1554 1378.59
-0.573027 -30.1648 1398.92
-0.573027 -30.1648 1398.92
-0.453528 -29.4942 936.393
-0.546102 -29.9691 1098.49
-0.546602 -29.9744 1103.06
-0.546602 -29.9744 1103.06
-0.562601 -30.0804 1239.38
-0.562601 -30.0804 1239.38
-0.56363 -30.0886 1252.61
-0.403796 -29.2316 930.448
-0.564648 -30.097 1266.99
-0.523333 -29.8116 984.026
-0.383382 -29.1052 929.856
-0.4358 -29.4083 935.271
-0.524693 -29.818 986.416
-0.566499 -30.1127 1295.24
-0.582556 -30.2533 1638.14
-0.517518 -29.7853 975.933
-0.56714 -30.1174 1303.21
-0.377269 -29.0674 929.41
-0.341406 -28.8089 927.752
-0.546193 -29.9795 1113.49
-0.24667 -27.8272 925.621
-0.508241 -29.7437 966.261
-0.519544 -29.796 981.357
-0.477317 -29.611 949.448
-0.57844 -30.2111 1510.5
-0.57844 -30.2111 1510.5
-0.582434 -30.2642 1681.65
-0.567718 -30.1236 1315.59
-0.521307 -29.8053 984.438
-0.211206 -27.2747 928.027
-0.571768 -30.1568 1382.16
-0.566836 -30.117 1303.06
-0.566836 -30.117 1303.06
-0.567566 -30.1233 1315.09
-0.546507 -29.9808 1114.06
-0.585541 -30.3035 1836.65
-0.547742 -29.9949 1133.69
-0.518341 -29.7961 985.886
-0.547491 -29.9916 1128.57
-0.548781 -30.0002 1137.78
-0.378172 -29.0896 939.09
-0.521412 -29.8098 989.59
-0.577643 -30.2065 1499.78
-0.569908 -30.1438 1355.54
-0.567673 -30.1257 1320.44
-0.567673 -30.1257 1320.44
-0.571693 -30.1582 1385.91
-0.54708 -29.9861 1120.63
-0.549909 -29.9552 1072.93
-0.529632 -29.8497 1006.3
-0.385297 -29.1383 941.362
-0.385297 -29.1383 941.362
-0.54617 -29.9785 1112.81
-0.581985 -30.263 1678.82
-0.577028 -30.2026 1490.44
-0.547135 -29.991 1129.49
-0.547135 -29.991 1129.49
-0.583583 -30.2778 1730.61
-0.533539 -29.8704 1017.66
-0.440519 -29.4545 951.406
-0.548327 -29.9982 1136.14
-0.548327 -29.9982 1136.14
-0.216019 -27.3967 939.335
-0.353904 -28.9301 942.93
-0.478211 -29.6293 961.877
-0.377456 -29.095 944.636
-0.547033 -29.9882 1124.63
-0.547033 -29.9882 1124.63
-0.547828 -29.9432 1064.8
-0.539583 -29.8994 1033.18
-0.581225 -30.2375 1585.18
-0.546484 -29.9849 1121.56
-0.373187 -29.069 945.763
-0.548669 -30.0042 1145.48
-0.548669 -30.0042 1145.48
-0.571556 -30.1594 1389.26
-0.57332 -30.1736 1421
-0.57332 -30.1736 1421
-0.444018 -29.4757 955.457
-0.525462 -29.8359 1005.82
-0.547633 -29.9959 1135.23
-0.526463 -29.841 1007.89
-0.566136 -30.1166 1304.68
-0.204911 -27.2122 944.386
-0.204911 -27.2122 944.386
-0.548405 -30.0013 1141.56
-0.571644 -30.1613 1394.08
-0.446957 -29.4948 959.336
-0.536788 -29.892 1033.95
-0.546408 -29.9882 1127.31
-0.567518 -30.1285 1327.21
-0.533081 -29.876 1026.45
-0.57149 -30.1606 1392.41
-0.558469 -30.0609 1215.01
-0.546998 -29.9944 1134.86
-0.514589 -29.796 1000.89
-0.581963 -30.2649 1685.07
-0.270647 -28.2036 954.21
-0.568664 -30.139 1348.05
-0.445191 -29.4961 966.738
-0.566656 -30.1241 1320.1
-0.566656 -30.1241 1320.1
-0.532137 -29.8572 1026.68
-0.532137 -29.8572 1026.68
-0.537943 -29.9036 1044.89
-0.233997 -27.7295 955.225
-0.258325 -28.0612 955.81
-0.542937 -29.9258 1059.84
-0.566408 -30.1223 1316.42
-0.534533 -29.8876 1036.2
-0.482634 -29.6672 981.225
-0.56699 -30.1272 1326.42
-0.567963 -30.1338 1337.95
-0.567522 -30.1303 1330.98
-0.547186 -29.9993 1143.01
-0.455565 -29.5474 975.115
-0.583994 -30.293 1794.6
-0.583994 -30.293 1794.6
-0.563533 -30.1013 1279.96
-0.569256 -30.1458 1362.7
-0.570167 -30.1529 1377.5
-0.569042 -30.1441 1359.14
-0.566163 -30.1217 1316.06
-0.567855 -30.1345 1340.37
-0.257394 -28.0639 962.059
-0.328318 -28.7762 964.479
-0.328318 -28.7762 964.479
-0.569453 -30.1483 1368.31
-0.485785 -29.6863 988.583
-0.485785 -29.6863 988.583
-0.568355 -30.1381 1346.48
-0.568842 -30.1431 1357.18
-0.48338 -29.6774 988.648
-0.48338 -29.6774 988.648
-0.480183 -29.664 987.43
-0.570283 -30.1547 1381.05
-0.477059 -29.6517 987.14
-0.44261 -29.4992 978.645
-0.534954 -29.8967 1047.35
-0.583199 -30.2774 1728.94
-0.583199 -30.2774 1728.94
-0.567203 -30.1307 1333.43
-0.567203 -30.1307 1333.43
-0.566625 -30.127 1326.58
-0.566625 -30.127 1326.58
-0.566035 -30.1224 1318.08
-0.568278 -30.1404 1352.91
-0.568278 -30.1404 1352.91
-0.57077 -30.1592 1391.18
-0.432916 -29.4527 978.746
-0.288938 -28.4347 970.16
-0.569842 -30.1533 1379.39
-0.538888 -29.9188 1062.52
-0.419219 -29.388 980.425
-0.569666 -30.1521 1376.62
-0.242178 -27.8861 972.39
-0.570492 -30.1581 1388.94
-0.57095 -30.1614 1396.18
-0.309782 -28.6407 975.198
-0.534991 -29.8936 1045.39
-0.281348 -28.3684 975.257
-0.574002 -30.185 1448.67
-0.549899 -30.0119 1156.48
-0.549899 -30.0119 1156.48
-0.584513 -30.3044 1844.01
-0.329399 -28.8106 979.032
-0.573429 -30.1817 1441.86
-0.480636 -29.6785 999.946
-0.511459 -29.8065 1022.04
-0.361657 -29.048 982.141
-0.373259 -29.1235 982.892
-0.574036 -30.1872 1455.07
-0.567478 -30.1351 1342.45
-0.555055 -30.0458 1198.35
-0.568857 -30.1467 1365.92
-0.509305 -29.7993 1021.98
-0.421926 -29.4145 989.806
-0.334241 -28.8561 984.055
-0.581066 -30.2609 1672.69
-0.284934 -28.4191 983.743
-0.308352 -28.6442 984.499
-0.366066 -29.0845 987.387
-0.57464 -30.1918 1465.67
-0.43659 -29.4906 994.998
-0.487923 -29.7168 1011.08
-0.572515 -30.1761 1429.69
-0.476162 -29.6688 1007.36
-0.574574 -30.1906 1461.44
-0.509233 -29.8065 1029.5
-0.555299 -30.0507 1206.74
-0.571378 -30.1678 1411.38
-0.324004 -28.788 991.744
-0.456545 -29.5885 1005.47
-0.347663 -28.969 993.706
-0.484803 -29.712 1016.22
-0.466987 -29.635 1008.79
-0.574072 -30.189 1459.89
-0.583743 -30.3016 1834.79
-0.462911 -29.6187 1008.87
-0.553805 -30.0073 1141.72
-0.451203 -29.568 1007.09
-0.57411 -30.1896 1461.47
-0.571711 -30.1713 1419.05
-0.477739 -29.6891 1019.15
-0.450663 -29.5701 1010.97
-0.292715 -28.5237 999.293
-0.401962 -29.3219 1004.54
-0.574003 -30.1889 1459.44
-0.438371 -29.5145 1009.55
-0.453311 -29.5852 1014.08
-0.453311 -29.5852 1014.08
-0.466194 -29.6417 1017.42
-0.486234 -29.729 1026.88
-0.440485 -29.5281 1013.19
-0.541249 -29.9382 1087.59
-0.559998 -30.0501 1193.75
-0.471245 -29.6735 1027.61
-0.553999 -30.0161 1156.05
-0.476125 -29.6958 1030.54
-0.556859 -30.0228 1153.16
-0.556859 -30.0228 1153.16
-0.559564 -30.047 1187.8
-0.481235 -29.7236 1040.68
-0.560353 -30.0595 1211.66
-0.434443 -29.5179 1029.07
-0.554419 -30.022 1165.33
-0.478846 -29.7162 1042.63
-0.560496 -30.0581 1207.44
-0.474651 -29.7013 1041.88
-0.561788 -30.0662 1218.13
-0.561788 -30.0662 1218.13
-0.483764 -29.7418 1050.54
-0.581397 -30.2771 1734.57
-0.556671 -30.0348 1179.75
-0.581499 -30.286 1772.75
-0.469976 -29.6931 1051.76
-0.581635 -30.2839 1762.39
-0.583039 -30.3057 1855.91
-0.554655 -30.0318 1183.42
-0.581291 -30.287 1777.87
-0.470565 -29.705 1062.7
-0.471094 -29.7105 1066.56
-0.582818 -30.3062 1858.74
-0.561094 -30.0711 1231.66
-0.552556 -30.024 1178.91
-0.552572 -30.0285 1186.82
-0.552572 -30.0285 1186.82
-0.411333 -29.4325 1066.91
-0.58109 -30.2476 1618.53
-0.55288 -30.0331 1194.61
-0.581596 -30.2835 1760.18
-0.580664 -30.2388 1587.67
-0.580624 -30.2375 1583.27
-0.559936 -30.0708 1235.83
-0.581287 -30.2505 1627.68
-0.581365 -30.2481 1617.46
-0.55395 -30.0385 1200.42
-0.58148 -30.2498 1623.1
-0.556932 -30.0483 1206.7
-0.580954 -30.244 1604.64
-0.555199 -30.0382 1192.58
-0.5814 -30.2535 1638.64
-0.5814 -30.2535 1638.64
-0.534338 -29.9539 1139.75
-0.532969 -29.9479 1135.95
-0.580079 -30.2691 1706.06
-0.559808 -30.0705 1236.58
-0.58002 -30.2733 1723.79
-0.559066 -30.0676 1235.35
-0.560774 -30.0776 1246.78
-0.437543 -29.574 1090.26
-0.580072 -30.2763 1735.89
-0.580375 -30.2891 1790.91
-0.580361 -30.2892 1791.69
-0.580574 -30.2395 1589.98
-0.580652 -30.2413 1596.4
-0.579992 -30.2776 1742.26
-0.580552 -30.2385 1586.77
-0.560945 -30.0818 1255.87
-0.56074 -30.0852 1264.86
-0.560355 -30.0783 1251.07
-0.559424 -30.0704 1239.87
-0.580763 -30.2339 1569.67
-0.580234 -30.29 1795.35
-0.558366 -30.0635 1232.63
-0.580781 -30.2866 1776.51
-0.580236 -30.2816 1759.06
-0.580372 -30.2884 1787.21
-0.579479 -30.2759 1737.24
-0.580041 -30.2904 1797.75
-0.579921 -30.2683 1702.87
-0.562351 -30.0956 1283.11
-0.561565 -30.0866 1265.66
-0.579533 -30.2769 1741.06
-0.579533 -30.2769 1741.06
-0.579951 -30.2811 1756.59
-0.579532 -30.2708 1716.12
-0.580575 -30.2897 1791.1
-0.579862 -30.2765 1736.92
-0.581385 -30.3095 1880.93
-0.579682 -30.2929 1810.39
-0.579079 -30.2762 1739.52
-0.579047 -30.2768 1742.29
-0.579699 -30.2953 1821.6
-0.579251 -30.2798 1753.89
-0.579131 -30.2782 1747.58
-0.580618 -30.3062 1868.24
-0.579208 -30.2784 1748.13
-0.580882 -30.3106 1888.65
-0.580076 -30.302 1850.54
-0.579375 -30.2817 1761.85
-0.579387 -30.2945 1818.92
-0.579287 -30.28 1754.29
-0.579287 -30.28 1754.29
-0.579347 -30.2786 1747.8
-0.581406 -30.2875 1775.76
-0.579779 -30.2981 1834.66
-0.581123 -30.3112 1887.1
-0.581123 -30.3112 1887.1
-0.580973 -30.311 1888.89
-0.593826 -30.3294 1848.59
