ply
format ascii 1.0
element vertex 112
property float x
property float y
property float z
end_header
-0.469939 0.0139148 -0.000432681
-0.409068 0.0122735 -0.000434061
-0.413362 0.0123855 -0.000432044
-0.474573 0.0140001 -0.00039825
-0.475063 0.0140115 -0.000397146
-0.470825 0.0138979 -0.000398303
-0.477467 0.0140737 -0.000393685
-0.477467 0.0140737 -0.000393685
-0.426612 0.0127283 -0.000423729
-0.469003 0.0138466 -0.000397116
-0.468951 0.0138425 -0.0003955
-0.475304 0.0140036 -0.00038421
-0.475304 0.0140036 -0.00038421
-0.483577 0.0142197 -0.000375034
-0.507785 0.0148626 -0.000353545
-0.49005 0.0143822 -0.000361055
-0.282691 0.00889573 -0.000350588
-0.489309 0.0143611 -0.000360782
-0.316105 0.00979927 -0.000383745
-0.268078 0.00849563 -0.00033342
-0.289569 0.00907963 -0.000356681
-0.328883 0.0101428 -0.000394611
-0.324804 0.0100323 -0.000390845
-0.488278 0.0143329 -0.000361049
-0.277517 0.00874972 -0.000342905
-0.315673 0.00978 -0.00038025
-0.341463 0.0104741 -0.000402126
-0.416679 0.0124857 -0.000436919
-0.41686 0.0124864 -0.000434175
-0.363498 0.0110431 -0.000407106
-0.407709 0.0122363 -0.000427758
-0.220197 0.00707638 -0.000261027
-0.413547 0.0123703 -0.000415549
-0.413547 0.0123703 -0.000415549
-0.444678 0.0132011 -0.000413759
-0.493634 0.0144149 -0.000295319
-0.493121 0.0144019 -0.000296542
-0.405063 0.0121294 -0.000406666
-0.431357 0.0128347 -0.00040812
-0.401493 0.0120297 -0.000403246
-0.486509 0.0142139 -0.000292484
-0.422381 0.0125756 -0.000394378
-0.487093 0.0142263 -0.000289182
-0.00653428 0.0012325 -7.58124e-06
-0.498513 0.0145745 -0.00032487
0.00866523 0.000804579 1.02141e-05
-0.415658 0.0123874 -0.000390464
-0.495638 0.0144968 -0.000326784
-0.389769 0.0116889 -0.000384044
-0.39365 0.0117946 -0.000385866
-0.385509 0.011571 -0.000381045
-0.385509 0.011571 -0.000381045
-0.493215 0.014431 -0.000328193
-0.389795 0.0116875 -0.000382842
-0.389795 0.0116875 -0.000382842
-0.414057 0.0123397 -0.000387114
-0.392556 0.011761 -0.000382824
-0.492561 0.0144123 -0.000327794
-0.387416 0.01162 -0.000379895
-0.331265 0.0100892 -0.000345354
-0.491457 0.0143836 -0.000329726
-0.419443 0.0124816 -0.0003861
-0.385713 0.0115716 -0.000377493
-0.410124 0.0122309 -0.000384545
-0.496043 0.0145002 -0.000319572
-0.319904 0.00977479 -0.000333859
-0.414356 0.0123426 -0.000383144
-0.411791 0.0122727 -0.00038243
-0.488705 0.0143166 -0.000339019
-0.414362 0.0123399 -0.000381332
-0.40737 0.0121536 -0.000381433
-0.417533 0.0124238 -0.000380348
-0.442373 0.0130925 -0.000378547
-0.297633 0.00915799 -0.000311213
-0.486848 0.0142681 -0.000341924
-0.413132 0.0123028 -0.000378022
-0.378098 0.0113564 -0.000366844
-0.25591 0.00800591 -0.000269514
-0.244166 0.00768066 -0.000257265
-0.244166 0.00768066 -0.000257265
-0.401501 0.0119899 -0.000375542
-0.412413 0.0122801 -0.00037541
-0.412413 0.0122801 -0.00037541
-0.238855 0.00753325 -0.000251598
-0.211212 0.00677104 -0.000223662
-0.406713 0.0121258 -0.000373873
-0.0908688 0.0034667 -9.82226e-05
-0.219938 0.00701027 -0.000232042
-0.233406 0.00738004 -0.000244884
-0.399294 0.0119262 -0.000371747
-0.0629386 0.00268428 -6.73125e-05
-0.00678941 0.00114034 -7.20732e-06
-0.481485 0.0140723 -0.000324297
-0.389002 0.0116414 -0.000360682
-0.269208 0.00835173 -0.000266627
-0.474976 0.0139641 -0.000361723
-0.490611 0.0143841 -0.000354284
-0.490611 0.0143841 -0.000354284
-0.49126 0.014401 -0.000353391
-0.495092 0.0145023 -0.000349783
-0.525866 0.0153096 -0.000306523
-0.525496 0.0152987 -0.000305693
-0.516807 0.0150884 -0.000336384
-0.509456 0.0148942 -0.000344167
-0.507821 0.0148473 -0.000342299
-0.506932 0.0148233 -0.000342546
-0.508662 0.0148598 -0.000332012
-0.513151 0.0149798 -0.000327563
-0.514251 0.0150075 -0.000324926
-0.513327 0.0149838 -0.000326588
-0.512612 0.0150114 -0.000378311
-0.755383 0.021733 -0.000394831
