ply
format ascii 1.0
element vertex 1108
property float x
property float y
property float z
end_header
-2.11677e+26 3.10123e-27 1.25264e+11
-1.76995 -1.41999 -0.779548
-6.08716e-21 395.34 2.44043e+13
-1.76988 -1.41993 -0.777911
0.00691124 4.0948e+28 1.1223e+11
-1.76992 -1.41997 -0.779085
nan 6.37315e+37 5.82189e-27
-1.77193 -1.4224 -0.775113
-4.88973e-29 -234.945 -7.27123
-1.76929 -1.41924 -0.776957
-3.90592e+15 2615.44 -1.77218e+28
-1.7689 -1.41875 -0.778193
1.07606e+13 -8.321e+17 2.89222e+35
-1.76867 -1.41848 -0.778166
1.49278e-12 -4.31139e+16 5.63955e-11
-1.76953 -1.41955 -0.775511
-3.34447e-17 5.48508e-34 -1.75867e-26
-1.76897 -1.41887 -0.77637
2.95405e-07 -2.78617e-05 0.00333674
-1.76886 -1.41874 -0.776553
-6.93382e-09 4.04009e+11 -6.86762e-05
-1.76858 -1.41838 -0.777475
-6.93382e-09 4.04009e+11 -6.86762e-05
-1.76858 -1.41838 -0.777475
8.95466e-14 -1.2241e-15 2.93124
-1.76897 -1.41887 -0.775891
-2.34198e+24 1.60452e+18 -2.80235e+36
-1.76843 -1.4182 -0.777797
7.19711e+15 3.79442e+19 0.127166
-1.76886 -1.41874 -0.776032
-8.97919e-32 -7.46513e+27 -3.52892e+12
-1.76865 -1.41848 -0.776529
-1.49156e+12 -1.317e-16 -1.82567e+14
-1.76892 -1.41881 -0.775653
2.5648e-21 -359989 -1.34012e-16
-1.76894 -1.41885 -0.775199
-2.13028e-08 -1.75681e-12 -6.74507e+26
-1.77202 -1.42254 -0.773384
-0.368835 6.75446e-38 -6.28141e+24
-1.76878 -1.41865 -0.775752
-1.74894e-14 1.51452e+16 -2.55653e+17
-1.76846 -1.41825 -0.776895
-8.90769e+10 1.57214e-08 -5.23654e+06
-1.76849 -1.4183 -0.776068
-9.54081e-15 2.41153e+23 1.14831
-1.7682 -1.41791 -0.778755
-8.36376e+20 -6.63002e-31 -1.00918e+11
-1.76832 -1.41809 -0.776132
-8.36376e+20 -6.63002e-31 -1.00918e+11
-1.76832 -1.41809 -0.776132
-1.57296e-30 -2.69199e-05 -15.6699
-1.76818 -1.41792 -0.776625
2.1211e+24 -1.89126e+36 5.75679e-29
-1.76824 -1.41796 -0.778901
-0.574781 -9.94092e+35 -1.41468e-07
-1.76848 -1.4183 -0.775446
61940.9 -1.82067e+27 6.92195e+18
-1.76805 -1.41777 -0.775561
-2.97536e+31 -113.803 -2.01149e+28
-1.76779 -1.41747 -0.775302
-2.97536e+31 -113.803 -2.01149e+28
-1.76779 -1.41747 -0.775302
-2.97536e+31 -113.803 -2.01149e+28
-1.76779 -1.41747 -0.775302
-5.59396e+18 -0.0979898 8.68481e-10
-1.76766 -1.41733 -0.77489
1.59429e-30 2.4747e+24 -4.59072e-07
-1.76854 -1.41843 -0.770709
2.83952e+25 -6.42319e+35 7.7905e+13
-1.76778 -1.41747 -0.774321
9.87189e-14 4.54362e+28 1.46729e-36
-1.76829 -1.41806 -0.776052
-4.20008e-20 38.1309 -0.0241326
-1.76744 -1.41706 -0.774639
4.34564e+17 2.41177e+13 -3.89894e-31
-1.76791 -1.41764 -0.773446
386.704 7.00637e+09 3.30795e-22
-1.7695 -1.41963 -0.765479
6.43686e-16 -1.72281e+12 0.00627265
-1.76824 -1.41808 -0.769991
3.62172e+25 -1.74118e-26 1.77074e-38
-1.76993 -1.42016 -0.764143
1.34021e+19 1.3608e+13 -6.93465e+27
-1.7677 -1.41737 -0.774276
-2.45851e+13 -5139.64 1.20967e+14
-1.76768 -1.41736 -0.773921
1.79703e+08 -2.10934e-35 -5.52652e-29
-1.76784 -1.41755 -0.773468
3.38816e-39 -2.6152e+26 -3.86554e-27
-1.76924 -1.41932 -0.766343
-1.36353e+35 -1.49167e-37 1.44479e+15
-1.76801 -1.41772 -0.776217
-3.69739e-19 8.86402e+15 5.89802e-09
-1.76943 -1.41956 -0.765009
-2.98204e-05 -5.26439e-24 3.77533e+31
-1.76788 -1.41761 -0.773081
2.31551e+32 6.31604e+33 -1.81352e+17
-1.76987 -1.42011 -0.761938
2.76802e+19 -1.10112e-30 -1.05652e-26
-1.77471 -1.42608 -0.737521
-2.22252e+21 -1.92539e-13 574.348
-1.77002 -1.42031 -0.761044
-3.76142e+32 -2.12205e-21 -3.24661e+33
-1.76948 -1.41963 -0.764002
6.56978e+22 -0.00184703 -9.66265e+22
-1.76722 -1.41679 -0.775387
1.1738e-26 0.163124 1.01543e-19
-1.76679 -1.41626 -0.775826
-1.88418e+31 -5.60393e-12 8.39912e+14
-1.76971 -1.41994 -0.761164
-5.10405e+33 2.76989e-33 -1.00124e-35
-1.7673 -1.4169 -0.774728
1.62702e+17 -6.26448e+11 3.06016e-27
-1.7731 -1.42401 -0.758892
-1.68992e-38 6.4314e-14 4.72795e+30
-1.77143 -1.42228 -0.722539
-5.30169e+09 -3.34941e-12 -4.33796e+21
-1.76975 -1.42 -0.759721
-4.70562e-06 -5.3885e-36 -0.000714274
-1.76832 -1.41815 -0.772005
1.14831e+29 3.49572e+13 5.91012e+07
-1.76705 -1.41659 -0.774766
-3.53662e-12 -2.51309e-15 -4.5279e+07
-1.76743 -1.41706 -0.77388
-1.05849e+08 -5.82758e+29 -2.7075e-09
-1.76512 -1.41424 -0.778554
-1.05849e+08 -5.82758e+29 -2.7075e-09
-1.76512 -1.41424 -0.778554
-1.03327e-25 0.000269569 -2.41164e-39
-1.76719 -1.41677 -0.773989
0.245275 -2.85274e+06 1.61934e+26
-1.76968 -1.41989 -0.761789
0.933205 1.7093e+35 -1.33792e+34
-1.77094 -1.42166 -0.727993
6.88197e-36 1.85459e-07 -8.69926e+30
-1.76965 -1.41988 -0.759888
-2.08955e+18 1.556e-39 3.85452e+14
-1.77314 -1.4239 -0.772354
2.10766e-36 -1.74489e-06 -1.09401e+24
-1.63933 -1.28585 -0.726925
2.25249e+16 -2.52334e-23 -5.2095e-16
-1.76707 -1.41664 -0.773607
-2.71826e+17 -8.11666 -1.39394e-05
-1.76723 -1.41683 -0.773311
-182.534 -6.03143e-18 3.81162e+10
-1.76976 -1.42001 -0.760397
3.30787e-21 56111.9 -7.60377e-32
-1.66012 -1.31058 -0.741416
4.43205e-22 3.34004e-21 2.83579e-12
-1.77088 -1.4216 -0.728003
-0.138383 -7.86892e-24 3.22884e-34
-1.76779 -1.4175 -0.772619
-227.438 3.92803e-17 5.20342e+12
-1.76692 -1.41646 -0.773473
-1.39766e+31 7.75787e+13 -3.4212e-25
-1.74071 -1.39069 -0.772093
6.77452e-06 -3.63509e+10 -2.53664e+22
-1.73311 -1.38617 -0.769773
-2.79488e-22 1.03939e-17 2.2574e+33
-1.76695 -1.4165 -0.773206
-2.76848e+26 2.13857e+13 -1.76049e+08
-1.67869 -1.33268 -0.751685
6.79718e+18 3.01889e-37 27654.4
-1.57745 -1.23129 -0.698161
9.86694e+20 1223.25 -1.86734e+36
-1.77062 -1.42125 -0.733078
-85.191 -3.69202e-37 1.47358e+37
-1.70614 -1.36531 -0.760456
-3.79862e+27 3.93438 2.2191e+36
-1.77058 -1.42122 -0.732254
-0.00236111 -1.32941e-36 5.98124e-34
-1.76959 -1.41983 -0.758347
-3.97777e-16 2.8118e+37 -1.88756e+36
-1.67752 -1.33133 -0.750641
-1.00781e-32 7.09099e-31 2.12172e-17
-1.66356 -1.31474 -0.741472
1.28449e-08 -1.59323e+35 -3.45366e-33
-1.77052 -1.42114 -0.73299
8.02287e+15 -7.12513e-22 8.39285e-27
-1.77079 -1.42149 -0.727835
-1.65879e+35 -7.41884e+22 6.83466e+18
-1.77082 -1.42153 -0.727202
-3901.79 0.137346 -9.36863e+37
-1.656 -1.30579 -0.735602
6.91224e-29 9.85005e+37 2.43132e+35
-1.76796 -1.41772 -0.771613
-1.99415e-19 3.56212e+21 27608.2
-1.77033 -1.42091 -0.732015
-1.99415e-19 3.56212e+21 27608.2
-1.77033 -1.42091 -0.732015
-2.13712e-36 -8.37589e-18 -3.2207e+06
-1.68755 -1.34329 -0.753296
1.31844e-20 6.29624e-38 -2.69876e+35
-1.85259 -1.50908 -0.826528
4.54018e-27 nan -1.55096e+22
-1.76834 -1.41826 -0.764884
nan 7982.59 6.76378e-39
-1.76869 -1.41862 -0.769503
6.12844e-16 -4.20355e+30 0.108279
-1.66733 -1.31927 -0.742765
-3.82797e+31 -2.14062e-08 -8.9593e+21
-1.77026 -1.42083 -0.732059
-3.82797e+31 -2.14062e-08 -8.9593e+21
-1.77026 -1.42083 -0.732059
208.476 -8.92243e+10 -9.99841e-20
-1.77049 -1.42109 -0.733966
-3676.1 1.07399e-33 -1.10152e-20
-1.64584 -1.29375 -0.727776
-1.75356e+13 -4.51413e-27 3.38759e+23
-1.72451 -1.38112 -0.764569
6.83631e-32 4.49892e-32 4.21186e-28
-1.55001 -1.19891 -0.686215
-1196.87 4.52438e-35 -6.68104e+13
-1.76836 -1.41822 -0.770109
-1.2985e+24 -1.07101e+18 -7.41268e+34
-1.61972 -1.26587 -0.711092
-3.91151e+34 7.76828e-15 -0.108136
-1.77017 -1.42073 -0.732189
-2.29017e+23 5.25531e+35 2.09464e+27
-1.66928 -1.32162 -0.743116
5.83415e+09 2.41391e-33 1.42321e-34
-1.67752 -1.33141 -0.748494
3.78681e+28 -8.80656e+33 -5.38323e-08
-1.77259 -1.42361 -0.728948
-55.5239 1.24423e+17 -7.8795e-11
-1.77036 -1.42094 -0.734749
1.56529e-30 0.160719 -6.16077e-27
-1.58175 -1.23666 -0.697476
3.03421e-07 -2.77924e+16 2.16265e-13
-1.4329 -1.07439 -0.626609
-8.36856e+13 -3.59285e+27 -7.35683e+16
-1.7459 -1.39386 -0.769225
4.87887e+25 -4.53599 4.76144e-36
-1.55943 -1.21022 -0.689267
4.87887e+25 -4.53599 4.76144e-36
-1.55943 -1.21022 -0.689267
-1.09802e-07 2.02014e+31 -7.12208e-06
-1.69433 -1.35141 -0.754116
2.44333e+33 1026.44 -2.6758e-37
-1.62577 -1.26997 -0.712187
-6.64235e-19 -3.17944e-31 -7.74253e+12
1.25216 0.968223 0.527079
-1.94071e+24 3.53014e-34 1.03295e-25
-1.76813 -1.41798 -0.767384
2.98863e+37 1.74635e-26 1.96863e+34
-1.77008 -1.42062 -0.733214
-3.60145e+09 -5.12434e+30 -8.57738e+10
-1.77008 -1.42061 -0.733713
-1.40536e+31 -1.59895e+08 -9.92368e-21
-1.77097 -1.42174 -0.722852
0.0334599 1.12694e-08 9.13144e+35
-1.63076 -1.27594 -0.714625
4.78235e-14 -3.84806e+36 5.55783e+32
-1.77088 -1.42154 -0.736618
6.54368e+29 -5.13535e-36 2.49394e+20
-1.71159 -1.37196 -0.758663
1.64416e-16 -4.41162e+36 -5.55647e-20
-1.68438 -1.33963 -0.750069
-1.38068e+20 -3.79056e-23 2.39958e+16
-1.77018 -1.42075 -0.731964
-1.07355e-33 -2.42544e+09 -9.75353e+17
-1.72586 -1.38196 -0.762691
1.21208e-15 9.76723e-05 7.8622e-29
-1.77115 -1.42186 -0.73872
-7.19227e-17 -1.38876e-18 -7.79792e+26
-1.7705 -1.42115 -0.728274
4.93842e-09 2.48234e+38 5.51743e+25
-1.28351 -0.951752 -0.546183
2.01375e+33 2.44003e-24 -0.000395731
-1.77017 -1.42074 -0.730941
8.80344e-23 1.97352e+26 2.9717e+36
-1.69383 -1.35087 -0.752732
8.80344e-23 1.97352e+26 2.9717e+36
-1.69383 -1.35087 -0.752732
1.18269e-32 1.74601e-27 1.35801e+16
-1.76549 -1.41481 -0.769224
9.18709e+08 1.21582e+08 1.68891e-23
-1.7701 -1.42064 -0.733352
25.2325 -8.05582e+26 4.37615e-36
-1.76597 -1.41538 -0.769606
-2.36452e-22 1.00229e-36 6.15769e-12
-1.77093 -1.42168 -0.722854
-2.37944e-26 52466.1 4.06911e-20
-1.42101 -1.06088 -0.616571
2.31575e-26 9.09084e+17 -3.7003e+33
-1.76439 -1.4135 -0.768773
4.6315e+17 9.86168e-14 3.38553e-26
-1.763 -1.41185 -0.768721
1.22066e+30 -1.08393e-21 -5.92269e+17
-1.76995 -1.42047 -0.732573
2.14836e+35 -56.6185 2.81023e+29
-1.77107 -1.42176 -0.739061
-1.81478e-13 -44718.8 -2.01655e-07
-1.77178 -1.42257 -0.743259
5.4008e-31 2.83726e+19 9.17422e-16
-1.79304 -1.44735 -0.802566
6.57847e+35 3.0445e+07 1.05012e+18
-1.76365 -1.41263 -0.768389
1.54339e-38 2.0861e+34 4.98315e+12
-1.76817 -1.41807 -0.764806
-8.78144e-20 8.54023e-12 3.99326e-31
-1.68779 -1.34375 -0.750032
-5.72404e+26 -7.41846e+27 -9.04536e+34
1.25418 0.968778 0.525859
1.98615e+25 3.26981e-33 -20337
-1.7699 -1.42042 -0.732007
1.98615e+25 3.26981e-33 -20337
-1.7699 -1.42042 -0.732007
-1.21048e-08 -1.43186e-25 -5.00726e-09
-1.62012 -1.26627 -0.707418
-1.21048e-08 -1.43186e-25 -5.00726e-09
-1.62012 -1.26627 -0.707418
-2.16937e+26 1.30597e-10 -2.1483e+18
-1.71187 -1.37235 -0.757402
3.90669e-25 -4.57946e+07 -3.17288e+29
-1.76985 -1.42035 -0.732417
-2.86459e+26 -2.30005e+37 1.11701e-24
-1.7199 -1.37845 -0.759698
2.16736e-29 -2.2739e+35 0.195953
-1.7658 -1.41523 -0.765603
7.59205e+25 3.01283e-24 2.2901e+27
-1.73088 -1.38497 -0.762686
7.59205e+25 3.01283e-24 2.2901e+27
-1.73088 -1.38497 -0.762686
-4.30265e-06 2.69331e+06 -1.73284e-21
-1.66739 -1.31952 -0.736742
-9.12029e+21 -269.526 -3.79171e+24
-1.76246 -1.41122 -0.768137
-2.05959e-33 -2.04124e-36 8.23759e+10
-1.76228 -1.411 -0.768354
6.64269e-28 -9.12031e-36 9.95235e+32
-1.77082 -1.42145 -0.739904
3.45863e+23 -2.62873e-30 -5.15749e+16
-1.7663 -1.41583 -0.765353
8.56126e-10 -1.63238e-36 1.08053e-26
-1.76261 -1.4114 -0.767805
-1.04752e+36 1.00386e+27 -1.76971e-34
-1.65865 -1.30915 -0.73061
-2.33514e+17 -1.31266e-24 -1.97746e-05
-1.76985 -1.42036 -0.731254
-4.94496e+33 6.85038e-10 2.9737e-36
-1.76232 -1.41105 -0.768001
1.16694e-34 4.04145e+29 -453384
-1.72037 -1.37873 -0.75937
4.10151e-28 4.93302e-30 5.7665e+21
-1.71584 -1.37604 -0.758034
-5.94912e+24 6.2979e+18 -1.07263e+06
-1.66822 -1.32053 -0.736541
7.70305e-07 -0.000467649 1.30382e-36
-1.70038 -1.35872 -0.75339
-7.39899e+09 2.45113e-29 -7.66952e-33
-1.71361 -1.37445 -0.757314
-7.44355e-22 -1.62607e-29 -1.21899e-06
-1.68395 -1.33921 -0.746457
0.000106589 -3.4483e-06 9.92238e-05
-1.67716 -1.33115 -0.74212
-0.006372 5.98973e-32 -8100.78
-1.64639 -1.29461 -0.722222
-3.57341e+24 -1.74148e-28 -0.0204238
-1.55003 -1.19934 -0.680272
1.25834e+31 -1.40633e+15 -1.39189e-27
-1.77079 -1.42142 -0.740739
nan 155.487 3.63996e-21
-1.6906 -1.34713 -0.750089
nan 155.487 3.63996e-21
-1.6906 -1.34713 -0.750089
6.97525e-37 -1.77032e-32 1.2854e+22
-1.76982 -1.42032 -0.731373
2.20992e+13 -2.95821e+11 -1.8437e-17
-1.77 -1.42055 -0.729873
-254.138 -4.29882e+21 0.0121186
-1.77013 -1.4207 -0.72908
7.53893e+37 -6.5329e+30 3.51836e-20
-1.77067 -1.42128 -0.739407
-4.53804e-23 -3.64838e-34 -2.55186e-10
-1.72602 -1.38211 -0.760223
-7.39046e-22 -7.07486e+32 -1.34386e-35
-1.36734 -1.00217 -0.580411
1.60619e+10 -1.35718e-16 27.1383
-1.76987 -1.42038 -0.731107
-2.8563e+22 4.3681e-32 1.41874e-34
-1.76982 -1.42032 -0.731629
3.43873e-16 -2.21188e-13 -4.52155e-36
-1.7214 -1.37936 -0.758891
2.26076e-25 1.06566e+24 -5.87888e+20
-1.76999 -1.42054 -0.729951
-2.75455e+23 95038.5 1.50349e-30
-1.58716 -1.24358 -0.695082
-2.05887e+11 8.77311e+27 -5.53235e+25
-1.70713 -1.36677 -0.754697
-2.19124e-25 -1.85376e-14 2.89968e-35
-1.63825 -1.28498 -0.71591
1.48097e-20 2.18992e+18 4.39765e+14
-1.71272 -1.37342 -0.756222
8.15977e+30 -3.68844e-27 -119.572
-1.52386 -1.16845 -0.660709
-1.0976e-05 -2.97988 -2.09259e+07
-1.7699 -1.42042 -0.730877
-5.76047e+35 -4.52316e-07 -5.22972e+29
-1.63084 -1.2762 -0.710884
-5.032e+36 0.00155387 4.95927e-27
-1.77007 -1.42062 -0.729679
1.65085e+36 6.3822e+14 -1.17185e-11
-1.76448 -1.41368 -0.764127
43778.4 1.75309 -4.12852e-27
-1.72026 -1.37869 -0.758059
8.24609e+29 -1.6014e+16 1.73824e-37
-1.77015 -1.42064 -0.742497
-5.65216e+32 2.07523e-17 -1.18936e-06
-1.75105 -1.3976 -0.767143
3.32007e+08 -1583.05 -4.10177e-38
-1.84114 -1.50224 -0.821608
-6.90353e-32 -5.75806e+31 3.9136e-17
-1.63768 -1.28434 -0.714812
-1.67472e+06 3210.01 1.06363e-27
-1.76033 -1.4087 -0.766266
-5.5564e-07 -106.785 -9.40977e-17
-1.77044 -1.421 -0.74025
-14.2789 4.66377e-18 -1.92737e+08
-1.75073 -1.39725 -0.765047
-7.02974e+12 -0.00736256 nan
-1.75181 -1.39854 -0.765413
1.56185e+28 -4.68803e-23 -5.30067e-20
-1.77045 -1.4211 -0.725399
-2.23599e-32 -3.24329e+21 -110.477
-1.44156 -1.08603 -0.625252
-9.25384e-21 -1.23231e-32 -9.21012e+08
-1.79455 -1.44918 -0.799473
-1.5496e-09 -9736.54 4.4671e-36
-1.76049 -1.40885 -0.768611
2.23867e+29 1.18356e-12 2.09444e-10
-1.77022 -1.42082 -0.727571
-38.5254 -8.37151e+29 -1.91075e+17
-1.85979 -1.51331 -0.82747
-1.24344e-18 4.73993e+20 2.30267e+12
-1.77032 -1.42086 -0.739079
-2.13411e+10 2.30607e-24 -2.98563e+33
-1.76998 -1.42044 -0.743125
-2.76987e-11 0.000738198 -3.3186e+30
-1.77059 -1.42128 -0.723347
6.0273 4.53999e-32 -1.10223e+21
-1.77041 -1.42097 -0.73844
1.76868e-23 5.62669e-28 -2.30356e-38
-1.71158 -1.37211 -0.754956
-4.17048e+06 1.09008e-31 -1.67158e+26
-1.75027 -1.39671 -0.76448
5.05901e+11 3.16211e-05 1.50131e-06
-1.76016 -1.40851 -0.765456
8.05179e+24 1.47112e+12 -2.58023e-24
-1.76255 -1.41136 -0.76562
-3.2726e+35 3499.32 -1374.74
-1.63933 -1.28633 -0.715212
-1.17063e+18 -9.17565e-11 4.20447e-07
-1.75898 -1.4071 -0.765598
-2.77131e-33 -4.75387e+33 -2.81095e-16
-1.53486 -1.18165 -0.666391
-2.02966e+12 3.56174e-25 -4.67e+27
-1.5931 -1.25039 -0.69561
-30456.2 -6.22033e+11 -4.73935e+19
-1.77024 -1.42084 -0.7282
-30456.2 -6.22033e+11 -4.73935e+19
-1.77024 -1.42084 -0.7282
1.07874e+13 4.24982e+25 6.76214e+17
-1.75317 -1.40016 -0.765086
8.13096e-37 -1.25321e-19 3.44679e+36
-1.76257 -1.41142 -0.76273
5.54554e+06 4.60394e-08 1.33082e-08
-1.74474 -1.39326 -0.763138
7.92342e+28 1.30498e+11 46398
-1.87503 -1.52237 -0.831936
6.86112e-22 -2.69399e+10 3.08625e+28
-1.55831 -1.20951 -0.680925
1.11875e+23 955430 5.18822e-31
-1.75944 -1.40766 -0.765098
1.29758e+16 -1.0821e-31 3.25097e+28
-1.76188 -1.41059 -0.763775
-0.0145932 1.26061e+07 6.60787e-22
-1.76008 -1.40842 -0.76495
7.20639e+13 2.60207e-25 -2.84869e-20
-1.77016 -1.42074 -0.72743
6.15648e-33 2.52866e-29 2.37271e+11
-1.52207 -1.16651 -0.657515
0.992696 -5.09612e+07 -1.29386e+29
-1.75896 -1.40709 -0.765098
2.14543e-09 1.4807e-32 2.06749e+18
-1.7703 -1.4209 -0.729664
-2.74326e+31 -1.7283e-31 -4.47213e+28
-1.7625 -1.41133 -0.76321
1.76131e-26 -7.9091e+10 1.62449e-24
-1.76222 -1.411 -0.763451
-9.46317e-25 -1.21541e-13 -5.79569e-27
-1.75969 -1.40796 -0.764757
-8.61759e-27 1.16433e-24 6.89177e+24
-1.36651 -1.0023 -0.577764
-5.68037e-05 3.13694e+09 6.1598e-35
-1.76977 -1.4202 -0.742064
-5.77927e-08 -0.0333764 16371.4
-1.7698 -1.42024 -0.741744
5.24136e-19 0.000470275 -7.1159e-27
-1.76278 -1.41168 -0.762443
-2.36576e-37 4.40967e-28 -7.73844e-16
-1.76452 -1.41377 -0.760734
-2.36576e-37 4.40967e-28 -7.73844e-16
-1.76452 -1.41377 -0.760734
-4.40804e-10 -4.65355 1.88872e-25
-1.76988 -1.42033 -0.74061
-4.40804e-10 -4.65355 1.88872e-25
-1.76988 -1.42033 -0.74061
-3.89055e-16 1.69767e+21 2.8763e-15
-1.74411 -1.39291 -0.762238
-1.17182e+09 1.58468e-23 -1.63302e+08
-1.77055 -1.42118 -0.73185
-1.17182e+09 1.58468e-23 -1.63302e+08
-1.77055 -1.42118 -0.73185
1.84577e+16 -8.71172e+18 4.02207e+34
-1.76303 -1.41197 -0.762176
-3.4915e-35 1.00246e+23 -2.70323e-35
-1.76185 -1.41056 -0.763011
5.61644e+14 -1.15366e+31 3.50144e+25
-1.76137 -1.40998 -0.763344
-3.84785e+28 -1.0634e-10 -1.46222e+29
-1.73707 -1.38872 -0.760601
1.93695e-25 912.765 -9.68705e-26
-1.74569 -1.39385 -0.762428
7.5235e-24 -4.77101e-36 1.46132e-36
-1.76539 -1.41483 -0.759307
-6078.65 -5.39516e-21 7.80733e+09
-1.26073 -0.939557 -0.524609
1.59318 2.31381e+19 -7.14645e-24
-1.74281 -1.39214 -0.761815
2.10136e+26 2.76227e+09 -4.29478e+35
-1.75949 -1.40772 -0.764359
-6.04316e+23 -5.81452e-28 -3.27305e+08
-1.87356 -1.52148 -0.830239
-1.07211e+10 -1.573e+26 -7.81298e-07
-1.75334 -1.40039 -0.763995
-8.54401e+36 -3.96061e+12 4.05158e+37
-1.77036 -1.42094 -0.734082
6.16036e-35 -160470 6.59088e+21
-1.76849 -1.41856 -0.755473
-106.798 -8.54906e-32 -2.12271e+15
-1.77014 -1.42052 -0.75591
6.04943e-27 243.537 -3.78512e+32
-1.76984 -1.4203 -0.739652
1.13917e+11 2.45648e+28 4.07701e+14
-1.21141 -0.906286 -0.504739
-4.57302e-17 6.6171e-06 -2.59452e+13
-1.71705 -1.37683 -0.755158
4.28923e-19 -7.87169e-16 4.75719e-30
-1.77018 -1.42072 -0.735905
4.06425e+34 6.10236e-05 4.91759e-37
-1.84137 -1.50238 -0.819539
-4.74552e+16 3.89168e-05 2.95111e+08
-1.73093 -1.38508 -0.758526
-4.27097e+13 -7.05675e-30 2.38736e-15
-1.71777 -1.37726 -0.755071
-4.20125e-05 2.56286e+19 -8407.24
-1.76206 -1.41082 -0.762133
-56013.8 952.804 -9.02683e-38
-1.75247 -1.39936 -0.763504
-4.48465e-34 6.58351e-23 5.30771e+34
-1.74778 -1.39503 -0.766799
-1979.14 6.97959e+30 -1.01511e-27
-1.76178 -1.41049 -0.762164
-8.63443e-32 -2.15744e+07 1.2575e-28
-1.77007 -1.42057 -0.737642
-1.62355e+06 1.35782e+18 0.000229512
-1.77007 -1.42058 -0.737298
-4.45067e-21 2.99511e-05 -7.3363e-05
-1.7592 -1.4074 -0.763739
-5.10495e+11 7431.16 -1.13285e-15
-1.76113 -1.40972 -0.7623
2.80018e-37 -44.3015 -7.71647e+34
-1.71709 -1.37687 -0.754539
2.80018e-37 -44.3015 -7.71647e+34
-1.71709 -1.37687 -0.754539
4.3755e+06 -9.16165e-25 3.70364e-08
1.1901 0.947088 0.498421
4.10135e+07 3.90225e+16 7.35686e+15
-1.75858 -1.40661 -0.766073
5.28637e+25 -2.40804e+14 -4136.35
-1.75024 -1.39672 -0.762406
-2.84965e-36 -3.3624e-22 2.68191e+25
-1.77017 -1.42071 -0.735394
1.70871e-32 5.22914e-14 -1.73688e+22
-1.76324 -1.41225 -0.761045
1.70871e-32 5.22914e-14 -1.73688e+22
-1.76324 -1.41225 -0.761045
86.0028 -3.33205e+25 -4979.86
-1.77074 -1.42141 -0.732275
-1.56983e-28 -2.89039e+12 -2.93674e-17
-1.75976 -1.40806 -0.7635
-1.48212e+38 5.89264e-13 -2.0362e-32
-1.76732 -1.41716 -0.756317
-2.10654e-26 8.71559e+24 -8.74871e-35
-1.75759 -1.40548 -0.763144
-2.20648e-20 -2.47519e+30 4.00227
-1.76594 -1.4155 -0.757473
-3.43401e+14 -1.21024e-30 3.82378e+35
-1.72227 -1.37996 -0.755631
2.03046e+33 -1.1329e+18 5.17536e-15
-1.74021 -1.39061 -0.759999
4.08161e-36 1.2966e+29 1.44403e+34
-1.76111 -1.4097 -0.761905
-1.24952e-06 -1.46058e-31 2.12811e-37
-1.7617 -1.41041 -0.761566
-8.64694e-18 93605 1.60187e+17
-1.76629 -1.41592 -0.75716
-22263.1 5.23598e+25 -3.93763e-08
-1.76963 -1.42004 -0.739978
-22263.1 5.23598e+25 -3.93763e-08
-1.76963 -1.42004 -0.739978
-6.21839e-22 4.07807e+37 -2.933e+15
-1.75778 -1.40571 -0.762852
-7.51277e+25 -17481.3 nan
-1.76132 -1.40995 -0.7616
-7.51277e+25 -17481.3 nan
-1.76132 -1.40995 -0.7616
2.9008e+25 -3.87414e+19 -5.71752e-22
-1.76959 -1.41999 -0.740288
-5.3666e+15 7.12477e+08 5.64188e+26
-1.67583 -1.32979 -0.734106
1.20036e-28 -6.85554e-14 -2.23716e-19
-1.661 -1.31218 -0.725166
-1.8789e-16 1.30467e+33 3159.26
-1.87812 -1.52604 -0.831288
4.79868e+21 4700.46 -3.80505e-12
-1.68831 -1.34461 -0.741452
-8.11218e-10 -2.12574e+17 3.40873e+20
-1.77041 -1.42107 -0.72279
-1.41728e+38 -3.99549e+13 3.33239e-36
-1.77016 -1.42076 -0.725372
-5.52228e-38 47.7905 nan
-1.72004 -1.37864 -0.754619
-3.68833e-24 3.7914e+15 -2.20253e+32
-1.64694 -1.29551 -0.716447
-2.85287e-37 3.0172e-20 7.54039e-06
-1.77057 -1.4212 -0.733564
-44.6585 7.30522e-30 -2.6786e-20
-1.75612 -1.40373 -0.762905
5.01171e+19 -8.30811e-29 6.43521e+10
-1.76789 -1.41786 -0.754729
-2.17561e-10 1.21294e+16 5.93813e+21
-1.76052 -1.40899 -0.761753
-2.18211e+24 4.35219e+21 4.61385e+10
-1.68238 -1.33758 -0.737583
-2.18211e+24 4.35219e+21 4.61385e+10
-1.68238 -1.33758 -0.737583
1.31906e+10 -3.69404e-31 3.50192e+13
-1.75746 -1.40533 -0.762522
5.94732e-26 1.6378e+25 2.63167e+31
-1.83271 -1.49449 -0.815943
1.56003e-18 6.98933e+35 -2.10099e-30
-1.75981 -1.40814 -0.762323
4.39357e+19 -6.97454e+20 -9.14079e-26
-1.76952 -1.41991 -0.740234
9.18261e-13 8.43815e-13 4.34906e+30
-1.76949 -1.41987 -0.740569
1.21268e+33 8.52194e-11 7.89341e+18
-1.76124 -1.40986 -0.761189
-2.93733e+25 3.42528e+19 1.06395e+09
1.04708 0.894315 0.461012
-7.00942e+12 -7.82909 8.58593e+19
-1.67462 -1.32837 -0.732702
-2.83226e-05 2.79207e-34 4.64978e+21
-1.76954 -1.41994 -0.739881
1.95905e+37 9.75748e+24 -1.30924e+35
-1.74647 -1.39435 -0.76047
-18252.9 5.00538e-24 4.05451e-17
-1.75685 -1.40461 -0.762275
1.28866e+33 1.47308e-19 6.33683e-18
-1.76095 -1.40951 -0.761101
-3.66923e-29 0.851837 -1.64622e-28
-1.86185 -1.51454 -0.824668
-245.769 -3.00193e+28 6.96557e-31
-1.75714 -1.40496 -0.762202
5.45769e-08 -9.76427e-26 -0.0259143
-1.63103 -1.27666 -0.706041
-5.8383e-25 1.40969e+17 -1.02889e+34
-1.64453 -1.29268 -0.714157
3.27731e+22 -1411.01 -1.65794e-28
-1.70042 -1.35901 -0.747214
9.35812e-21 -5.08734e+12 -4.68952e+30
-1.74294 -1.39225 -0.759518
1.8119e-10 -7.66322e-16 -6.55976e-29
-1.66443 -1.3163 -0.725986
4.04261e+12 -4.31006e+21 5.89439e-13
-1.75753 -1.40543 -0.761868
0.00224919 1.5125e-18 -1.99276e-26
-1.82993 -1.4912 -0.814488
1.13855e+20 9.98523e+06 -8.93897e-06
-1.33798 -0.986131 -0.56591
-4.17662e-18 1.83754e-05 1.41571e-19
1.24171 0.961898 0.51303
-0.110567 4.61896e-38 -3.94176e-07
-1.75968 -1.408 -0.760975
3.14106e+25 -1.32418e+15 1.86649e-32
-1.73941 -1.39016 -0.758487
48465.9 2.22214e-07 1.33352e-10
-1.75897 -1.40715 -0.761528
0.00793238 1921.03 -7.80351e-28
-1.48894 -1.13418 -0.636197
1.18866e-33 -1.98374e+09 -1.53707e+32
-1.76224 -1.41106 -0.760461
690089 7.11165e+30 1.90538e+20
-1.75636 -1.40403 -0.761632
3.18669e+38 1.11215e+20 -7.86229e-35
-1.81717 -1.47607 -0.807879
-525938 -9.87383e-31 -5.63363e+32
-1.77007 -1.42058 -0.737573
2.53556e-25 6.38808e-32 -8.71501e+22
-1.75963 -1.40794 -0.761015
570838 -0.00104684 -1.62154e+37
-1.62535 -1.26991 -0.702686
-6.31477e+32 4.75087e-19 -1.53939e-22
-1.76114 -1.40976 -0.760321
3.05737e+31 1.76728e-12 3.00018e-24
-1.75811 -1.40612 -0.761361
-8.89206e-20 3.38592e-21 0.00350443
-1.77058 -1.42122 -0.732779
8.59198e+31 2.28248e-29 -2.81687e-26
-1.69135 -1.34828 -0.740859
8.59198e+31 2.28248e-29 -2.81687e-26
-1.69135 -1.34828 -0.740859
-1.2292e-22 -3.63792e-32 6.75187e+09
-1.75762 -1.40554 -0.761342
3.47009e-31 -1.38743e+25 2.72499e-36
-1.87003 -1.51939 -0.825998
2264.61 -1.68656e+28 -3.59786e-22
-1.75848 -1.40657 -0.761243
-7.56533e+19 2.75378e+07 4670.99
-1.75295 -1.39997 -0.76141
-2.52604e+32 -1.43975e+26 -1.04767e+38
-1.75917 -1.40739 -0.760859
-5.30099e+14 -60.4026 5.35683e+14
-1.75642 -1.40411 -0.761235
1.99678e-25 -3.60372e-08 1.51155e-07
-1.7612 -1.40983 -0.76006
-1.40156e+07 -9.63002e-33 -1.34998e+37
-1.77067 -1.4213 -0.735076
1.45542e+21 2.12784e-14 6.61866e+24
-1.76023 -1.40866 -0.76037
-6.31435e-34 -3.07223e+30 -6.33319e+28
-1.75809 -1.40611 -0.761106
8.05564e+32 -1.57107e+32 0.00438228
-1.83328 -1.49518 -0.814764
1.04212e+32 -6.04326e-38 -0.000161477
-1.74683 -1.39458 -0.759336
1.90083e+20 1.56491e-06 9.56309e-14
-1.85754 -1.51198 -0.821831
-1.69484e+06 9.0242e-36 5.3517e+16
-1.75886 -1.40702 -0.760724
-5.81765e-15 4.11133e-26 -1.36239e+18
-1.75679 -1.40456 -0.761025
-2.81854e-10 1.3908e-21 1.67872e-25
-1.64391 -1.292 -0.712372
-1.24295e+36 -9.03849e-39 0.0361135
-1.76 -1.4084 -0.760246
8.74575e+36 -3.47708e+25 -9.40851e+31
-1.62273 -1.26818 -0.701131
8.74575e+36 -3.47708e+25 -9.40851e+31
-1.62273 -1.26818 -0.701131
6.25299e-18 3.77772e+30 2.81385e+19
-1.75906 -1.40727 -0.760513
7.32329e-28 -2.24828e+12 2.67984e-14
-1.74267 -1.39211 -0.758338
-1.57413e+09 6.38718e+10 1.46881e-07
-1.76984 -1.42038 -0.726538
-7.17092e-23 -9.2815e-29 1.31931e+23
-1.81832 -1.47744 -0.807303
-6.0059e-13 -7.7762e-23 1.81455e-28
-1.69838 -1.35664 -0.743911
5.71513e+14 -7.52684e-15 -1.31817e-39
-1.7677 -1.41769 -0.750248
112733 6.73161e+24 -5.12109e+14
-1.76788 -1.41791 -0.749618
-1.0178e+23 2.10783e-11 8.8766e-28
-1.63087 -1.27654 -0.704347
9.56983e-09 4.86957e+27 -429.423
-1.69395 -1.35139 -0.741306
-4.90515e-12 -7.45512e-26 -5.94552e+25
-1.75558 -1.40311 -0.760679
-531967 1.68884e-08 -2.61469e+16
-1.87035 -1.51958 -0.825539
-202.898 -7.36125e+22 -1.73591e+17
-1.70028 -1.3589 -0.744675
-3.83275e-22 3.47086e-23 5.86056e+31
-1.75597 -1.40358 -0.760635
1.62801e+33 6.38989e+16 92751.9
-1.77082 -1.42148 -0.734729
-1.83043e-31 2.90731e+26 7.87655e+20
-1.73138 -1.38541 -0.755574
6.11688e+18 -2.92877e-32 -0.0254479
-1.39462 -1.03174 -0.58783
-2.1508e-05 -1.46043e-34 2.25617e+12
-1.76761 -1.41757 -0.750342
1.35011 -4.59188e-06 -18.5091
-1.70154 -1.3604 -0.74509
-1.90117e-15 1.01082e-15 -0.000166018
-1.8148 -1.47327 -0.804427
-8.39949e+18 -1.41481e+30 -2.33278e-14
-1.7563 -1.40398 -0.760464
9.41302e-12 3.14332 -1.36532e-05
-1.7573 -1.40517 -0.760665
-5.12276e-17 -9.03937e+07 -8.26876e-38
-1.87798 -1.52588 -0.828241
-3.87724e+32 -1.68843e-37 7.70825e+31
-1.7588 -1.40697 -0.760097
4.30256e-06 4.88762e-30 -1.17247e-34
1.12972 0.918956 0.47728
8.33283e+11 -2.62892e-20 -1.52255e+25
-1.30665 -0.96799 -0.547143
9.27722e+16 997192 3.05324e-35
-1.82493 -1.48528 -0.810125
-1.09455e+10 -2.01682e-27 -8.41572e+25
-1.83882 -1.50088 -0.815495
-1.09455e+10 -2.01682e-27 -8.41572e+25
-1.83882 -1.50088 -0.815495
295.672 2.49509e+25 -1.42982e-32
-1.75764 -1.40558 -0.760163
73791.2 3.94629e+06 -5.92018e+17
-1.65729 -1.30791 -0.719169
73791.2 3.94629e+06 -5.92018e+17
-1.65729 -1.30791 -0.719169
-8.01909e-21 1.70969e+16 3.77132e-32
-1.7206 -1.37902 -0.752345
-1.47193e+11 -1.69886e+07 5.96072e-13
-1.75914 -1.40737 -0.759849
-5.24576e+20 -6.01924e-11 -4.01049e+18
-1.64277 -1.29069 -0.710589
-1.72965e-27 628.35 -2.14639e-23
-1.54599 -1.19549 -0.665475
2.46759e-27 5.18834e+19 5.69843e-33
-1.75938 -1.40766 -0.759738
-5.18471 1.21462e+36 -2.4534e+17
-1.82863 -1.48967 -0.812072
-6.84632e+29 -9.62559e+28 2.51322e+28
-1.81555 -1.47415 -0.804116
-8.70301e+24 0.000194573 3.08985e-29
-1.75734 -1.40523 -0.760069
2.15807e+24 -2.18532e-30 8.26567e-28
-1.86269 -1.51504 -0.822434
6.11487e+13 5.57507e+29 -0.0344761
-1.77002 -1.4206 -0.724156
3.1802e+18 8.37376e+15 1.30261e+34
-1.75896 -1.40716 -0.759719
3.1802e+18 8.37376e+15 1.30261e+34
-1.75896 -1.40716 -0.759719
5.99032e+21 -9.72902e-17 1.00743e-20
-1.76716 -1.41704 -0.750906
1.65636e-25 2.90556e+34 -6.29803e-24
-1.40633 -1.04582 -0.593856
-0.00361534 -0.000199608 -2.09606e+08
-1.62099 -1.26725 -0.69852
-2.01347e+21 1.68502e-09 2.98348e-05
-1.76694 -1.41677 -0.751487
-0.000110362 3.67424e+32 4.96531e+11
-1.65703 -1.30762 -0.718425
2.1832e+21 6.10629e+14 -5.17232e+21
-1.76975 -1.42026 -0.726446
1.28445e-20 2.45261 2.02096e-14
-1.72063 -1.37905 -0.751953
8.70189e+27 -4.02303e-27 -1.35253e-26
-1.81441 -1.47281 -0.802751
8.65437e+27 -4.49013e-30 -2.75001e-28
-1.66576 -1.31798 -0.723271
198.696 2.11863e+28 3.50236e+18
-1.77024 -1.42078 -0.737034
2.34895e-38 -2.09893e-16 3.06468e+32
-1.87564 -1.52309 -0.825903
-7.19129e+14 1.14468e-07 5.79602e-38
-1.69875 -1.35713 -0.741798
-2.03663e-07 -1.5242e+10 -9.36882e+11
-1.83198 -1.49366 -0.812142
-9.89818e-14 261836 -8.40346e+37
-1.59908 -1.25427 -0.691646
1.00002e+34 -3.18147e+09 -6.24236
-1.68988 -1.34662 -0.736706
4.69687e-33 -2.51053e-27 1.16411e-16
-1.76716 -1.41704 -0.750309
9.74351e-31 -2.91389e-34 -6.73153e-21
-1.76975 -1.42018 -0.741662
-5.87657e+37 1.71562e-13 -2.28194e+22
-1.83057 -1.49198 -0.811952
-4.68352e-29 -2.57803e+28 -6.78852e-24
-1.53783 -1.1859 -0.659356
5.31683e+29 4.79489e+37 -2.77655e+38
-1.85588 -1.511 -0.819612
9.23655e+15 -5.45963e+23 -1.96701e-31
-1.68685 -1.34302 -0.734706
-2.00942e-26 7.27034e-22 1.56186e+36
-1.71563 -1.37609 -0.750196
5.18028e+28 -4.63535e-26 4.46306e+11
-1.76127 -1.40979 -0.769146
-5.73762 5.398e+29 -2.55121e-09
-1.69537 -1.35314 -0.739396
-0.0154977 3.55621e-12 -4.91284e-08
-1.70301 -1.3622 -0.743535
-1.76384e+23 -4.94095e-14 9.85634e-33
-1.4617 -1.1117 -0.625295
2.94711e-16 -1.02676e+31 -6.85994e+09
-1.83667 -1.49922 -0.8137
1.4047e+10 1.49821e+38 -0.00143485
-1.81771 -1.47673 -0.803586
1.4047e+10 1.49821e+38 -0.00143485
-1.81771 -1.47673 -0.803586
2.1396e-32 -2.01719e-18 -2.67924e-08
-1.76102 -1.40963 -0.758447
0.000212231 11.9553 1.84238e-28
-1.32503 -0.979158 -0.556367
-7.38637e+31 1.02585e-24 3.71511e-32
-1.76844 -1.4186 -0.744691
-71.427 1.86009e-11 -5.4761e-30
-1.23688 -0.924254 -0.507473
1.33404e-31 -8.01182e+12 -5.38309e+37
-1.76908 -1.41937 -0.742778
-1.67511e+32 3.39234e-36 4.40454e-24
-1.66384 -1.31575 -0.721043
-9.47059e-12 4.11414e-24 2.24724e-35
-1.6382 -1.28534 -0.706194
-1.17709e+19 3.13726e-27 -2.03325e-26
-1.75358 -1.40076 -0.758509
-4.74873e-33 8.14249e+13 4.40491e-37
-1.75486 -1.40228 -0.758904
-1.79782e+28 3.44822e+13 -132016
-1.76973 -1.42015 -0.740471
-1.7449e-16 1.62445e-21 1.17611e-33
-1.77013 -1.42065 -0.739004
-1.37005e+23 1.67055e-32 3.41157e+24
-1.76678 -1.41659 -0.750679
-1.25213e+13 1.78245e-16 -7.73339e+23
-1.81324 -1.47143 -0.800346
-1.02712e-06 1.66435e-09 -0.000127266
1.23881 0.960156 0.508713
-2.28259e+14 -5.6391e-22 1.88967e-13
-1.76687 -1.4167 -0.750454
-2.28259e+14 -5.6391e-22 1.88967e-13
-1.76687 -1.4167 -0.750454
-4.80119e-20 -3.41686e+29 2.21881e-37
-1.72962 -1.3844 -0.753225
-1.92684e+07 -2.40745e+31 1.23912e-14
-1.7666 -1.41637 -0.751033
-1.92684e+07 -2.40745e+31 1.23912e-14
-1.7666 -1.41637 -0.751033
2.00257e-35 6.84583e-20 5.30111e+35
-1.76966 -1.42016 -0.726058
4.15492e+11 -1.39517e+22 5924.52
-1.69806 -1.35635 -0.739872
-7.22411e+25 -8.8133e-30 -2.60975e-14
-1.71302 -1.37411 -0.747915
-7.22411e+25 -8.8133e-30 -2.60975e-14
-1.71302 -1.37411 -0.747915
4.25828e+23 -1.26608e-30 8.51756e+23
-1.62598 -1.27085 -0.698922
7.18919e+36 -3.17328e-28 -3.66638e+29
-1.62554 -1.27033 -0.698662
-3.04109e-28 -6.74982e+23 -1.16082e+22
-1.81466 -1.47311 -0.800868
-3.02965e+25 -2.40318e-35 5.20553e-38
-1.75358 -1.40077 -0.758241
-2.78109e-10 -1.99362e-24 -1.33047e+32
-1.7701 -1.42071 -0.721893
2.70912e+15 1.53457e-16 -1.64692
-1.76544 -1.41496 -0.753542
-2.38522e-31 -2.97966e+23 4.23633e+35
-1.75479 -1.40221 -0.758205
2.15373e-30 -4674.67 -1.09957e-31
-1.75439 -1.40173 -0.758191
3.59093e+09 1.3974e-25 1.04038e+34
-1.57227 -1.22686 -0.677942
2.10826e+23 1.78143e-36 -4.19101e-05
-1.53082 -1.17771 -0.65379
9.88974e+35 -2.23398e-35 -1.29887e-12
-1.6852 -1.34111 -0.73226
-1.99332e+38 3.06267e-25 3.20387e-28
-1.75366 -1.40087 -0.757995
-7.91214e+21 -1.40642e+20 3.56126e-29
-1.62638 -1.27135 -0.698715
1.75253e-32 6.30861e+32 -1.02096e+20
-1.75192 -1.39879 -0.757525
1.23413e-08 6.78237e+08 7.84445e-36
-1.85901 -1.51286 -0.819293
-0.212415 -1.23765e+22 118.579
-1.75261 -1.39961 -0.757632
-182.785 -1.04859e+35 -1.00874e-06
-1.83019 -1.49155 -0.809184
-1.80362e+18 -2.009e-14 -8.93396e+18
-1.75455 -1.40193 -0.757816
0.565272 1.19005e-15 6.25102e+28
-1.75308 -1.40018 -0.757616
1.51568e-07 -2.58998e-27 1.75038e+24
-1.76958 -1.42007 -0.725921
0.00795329 6.08197e-16 4.11779e-11
-1.70795 -1.36811 -0.74397
0.000191756 -4.65515e-32 5.91821e+20
-1.63859 -1.28584 -0.705266
2.1537e+15 1.33344e+26 -1.71745e+11
-1.67385 -1.32766 -0.725196
-1.53287e+38 2.83914e-21 0.749309
-1.7525 -1.39949 -0.757267
1.85962e-13 -8.87895e+30 -1.02425e-38
-1.76718 -1.41705 -0.752494
5.53613e-06 -9.43196e+26 -3.86127e-22
-1.33017 -0.9826 -0.55676
1.68132e-27 4.71958e+24 -688.605
-1.75135 -1.39812 -0.757086
-4.74629e-05 -6.38803e-05 -3.9155e-26
-1.86398 -1.51581 -0.820302
4.11608e+17 -9.5273e-23 6.16588e+17
-1.75738 -1.4053 -0.757914
2.69978e-28 -1.82922e+12 1.56764e+38
-1.83794 -1.50037 -0.81276
1.78046e-24 -3.3758e-38 9.56277e+20
-1.76966 -1.42017 -0.724895
-4.48893e-13 -3.55139e-10 -4.56464e+17
-1.75291 -1.39999 -0.75715
-4.48893e-13 -3.55139e-10 -4.56464e+17
-1.75291 -1.39999 -0.75715
3.68338e-06 4.01898e-21 -1.65534
-1.76626 -1.41597 -0.750911
-8.46138e-38 5.80222e-26 1.12223e+32
-1.69153 -1.34864 -0.734543
-3.92705e+16 -5.01808e+10 4.21741e+08
-1.75077 -1.39744 -0.75647
-3.444e+24 -3.60077e+34 5.74113e-34
-1.87763 -1.52546 -0.824687
2.6641e+38 8.08485e+35 5.43214e-06
-1.87369 -1.52157 -0.822805
-3.40456e+34 1.05749e-09 5.87778e-19
-1.75152 -1.39833 -0.75662
-4.98727e-10 -255.27 -1.58231e+23
-1.74843 -1.39559 -0.755873
-9.95621e+32 -2.23662e-20 -5.87754e+37
-1.74382 -1.39285 -0.754941
4.88368e-09 9.25506e-18 29.0893
-1.86605 -1.51704 -0.820387
5.44823e+13 -3.91131e-26 -8.53437e-26
1.15344 0.931322 0.482327
7.2965e+23 -2.17104e+24 -1.89532e+31
-1.69717 -1.35535 -0.737061
-3.8297e-09 2.02728e+29 -6.21753e+17
-1.76962 -1.42012 -0.725039
-1.59973e-29 1.55364e-32 -7.78518e+30
0.806972 0.814663 0.352829
-1.59973e-29 1.55364e-32 -7.78518e+30
0.806972 0.814663 0.352829
-1.10664e+36 3.12732e-19 -3.65712e-32
-1.74909 -1.39599 -0.755718
0.880401 -5.12501e+21 3.00842e+11
-1.80845 -1.46577 -0.793966
4.7737e+08 0.000111836 -1.59215e+21
-1.75576 -1.40338 -0.756983
7.85356 46664 -8.39074e+21
-1.8738 -1.52163 -0.822312
3.48572e-26 -9.03795e+08 -3.40825e+15
-1.66126 -1.31277 -0.716977
-1.9525e+06 3.43082e+13 2.95563e+08
-1.81323 -1.47144 -0.797368
-6.93325e-08 -1.83237e-13 1.1448e-14
-1.7323 -1.38602 -0.752185
5.60231e+27 -1.16494e-28 2.9626e+38
-1.86315 -1.51532 -0.819207
5.60231e+27 -1.16494e-28 2.9626e+38
-1.86315 -1.51532 -0.819207
1.84071e-24 9.67383e-37 -8.70823e+32
1.23781 0.959343 0.506457
-1.83205e-13 122.147 4.91666e-08
-1.75164 -1.39849 -0.756145
8.9292e-23 -4.1869e-12 1.20276e+07
-1.75061 -1.39726 -0.755833
2.07951e-16 -6.80627e+37 -8.1648e+29
-1.74085 -1.39105 -0.757052
4.20021e+32 6.98228e-15 7.94155e+19
-1.76596 -1.41561 -0.750967
2.02281e+31 -7.24261e-11 0.000179746
-1.354 -0.997001 -0.565551
2.41743e-09 -0.556216 2.19995e-26
-1.87238 -1.52079 -0.821396
-6.90957e-36 2.41944e+14 -6.55029e-17
-1.81014 -1.46777 -0.794937
2.28216e-25 7.93967e-27 4.93286e+11
-1.7028 -1.36206 -0.738858
-1.29801e-09 3.25974e-14 -1.24404e-08
-1.75146 -1.39828 -0.755683
-1.48297e-06 -3.06679e+21 5.82905e-38
-1.82482 -1.4852 -0.802401
-4.38151e+11 -3.05421e-38 1.5818e+29
-1.7654 -1.41493 -0.751857
1.19597e-26 3.07979e+38 128.856
-1.72533 -1.38189 -0.750082
-7.23431e+36 4.06045e-07 -0.340379
-1.75904 -1.4073 -0.756836
1.33108e-15 56.7635 -0.963166
1.23617 0.958728 0.505483
-6.93851e-19 3.57666e-22 1.74529e-16
-1.81715 -1.47609 -0.798693
-6.93851e-19 3.57666e-22 1.74529e-16
-1.81715 -1.47609 -0.798693
-4.9192e-11 2.85184e-05 7.21233e+18
-1.13418 -0.854311 -0.475521
-1.65589e+15 1.21599e-31 7.55451e+37
-1.4995 -1.14108 -0.633542
1.33548e-05 -7.84792e+14 3.44678e+20
-1.87795 -1.52584 -0.823562
1.33548e-05 -7.84792e+14 3.44678e+20
-1.87795 -1.52584 -0.823562
44564.3 2.98079e+27 0.000113968
-1.81411 -1.47249 -0.796646
