ply
format ascii 1.0
element vertex 591
property float x
property float y
property float z
end_header
1.51576e+11 1.37827e+09 2.49272e+31
-1.77267 1.1559 -0.706513
1.76626e-10 -2.6047e-21 -1.12083e-15
-1.77269 1.15591 -0.706162
3.17557e+32 -4.10875e-31 -4.44375e+29
-1.7726 1.15584 -0.706958
-3.97299e-14 1.04746e+24 1.20711e+30
-1.77244 1.1557 -0.707675
-3.97299e-14 1.04746e+24 1.20711e+30
-1.77244 1.1557 -0.707675
-3.90666e+37 -2.08565e+06 864778
-1.77255 1.15577 -0.706329
-2.98039e+07 -6.14647e+08 0.000800342
-1.77238 1.15565 -0.708159
-6.06238e+14 4.77754e+07 6.53626e-38
-1.77215 1.15547 -0.710755
4.17976e-13 3.17437e+18 -15688.5
-1.77212 1.15545 -0.711148
-6.31942e-33 -5.18585e+36 1.34421e-24
-1.77241 1.15564 -0.706909
-1.65897e+09 -7.14137e-24 -2.66895e+28
-1.77197 1.1553 -0.711237
4.46343e-35 7.57848e-23 1.02481e-20
-1.77562 1.15917 -0.71933
-5.39113e-11 -0.58835 1.32248e+11
-1.77557 1.15913 -0.720134
-3.38575e-27 -8.96027e-26 1.26458e-12
-1.77555 1.1591 -0.719223
6.36321e+19 1.88907e-21 -39768.3
-1.77235 1.15558 -0.706599
9.15068e+08 2.6257e-28 8.18103e-09
-1.77962 1.16316 -0.720073
-1.42517e+13 -3.84179e-08 -5.37632e+35
-1.77217 1.15542 -0.707993
-1.42517e+13 -3.84179e-08 -5.37632e+35
-1.77217 1.15542 -0.707993
-1.42517e+13 -3.84179e-08 -5.37632e+35
-1.77217 1.15542 -0.707993
-7.45358e-32 -6.64116e-26 -1.06374e-08
-1.77106 1.15518 -0.74442
-0.000947809 3.19067e+16 4.23933e-05
-1.77546 1.15901 -0.720081
1.29578e+18 1.49157e-26 3.20188e+13
-1.77141 1.15553 -0.744725
-3.10752e+07 0.306095 1.99199e+22
-1.77198 1.15526 -0.709344
-122.448 2.55292e-27 -6.10656e-23
-1.77536 1.15891 -0.719981
-122.448 2.55292e-27 -6.10656e-23
-1.77536 1.15891 -0.719981
1.13586e+34 -6.72162e+27 4.82637e-15
-1.77179 1.15511 -0.71121
3.59192e+22 4.55918e+21 -1.81043e-19
-1.77533 1.15888 -0.719555
4.93153e+30 1.73281e+21 1.3699e+31
-1.77529 1.15885 -0.720357
2.67246e-12 -8.11721e+16 -2.91496e-22
-1.7722 1.15542 -0.706791
302.772 -1.88538e-18 9993.42
-1.77525 1.15883 -0.720919
7.7257e-26 3.24296e+13 -3.15282e-09
-1.77174 1.15506 -0.711293
2.96912e+14 -2.11431e+09 -1.66547e-19
-1.77524 1.1588 -0.720202
-5.90181e-18 -6.32704e-19 -2.0659e-12
-1.77521 1.15879 -0.721312
-0.377632 -4.91502e-33 -4.31361e+15
-1.77527 1.15881 -0.719646
-1648.25 -2.15361e+28 2.10311e-13
-1.76754 1.15153 -0.741004
-4.97286e-36 -4.45124e-19 -2.07671e+17
-1.7752 1.15878 -0.720958
3.95369e+31 -8.08969e-33 -10.9521
-1.77517 1.15874 -0.720721
4.57572e+26 3.97728e-15 2.86865e-33
-1.75396 1.13904 -0.762424
-68.0393 -2.19278e+33 3.20173e+18
-1.76561 1.15 -0.753432
-1.63223e-06 -1.45924e+14 -0.00851804
-1.77165 1.15497 -0.71124
-5.27999e-30 5.46303e+08 1.99879e-23
-1.76543 1.14985 -0.753913
608808 -1.51405e-09 5.69481e-12
-1.77524 1.15881 -0.720874
4.94323e+08 2.01352e+32 1.648e-24
-1.75746 1.14247 -0.762541
-3.42298e-06 -2.33897e-38 -2.92483e-21
-1.7721 1.15531 -0.706788
7.08647e-05 2.59872e+22 -3.69673e-23
-1.75702 1.14203 -0.762371
-1.15885e+23 0.00099854 -5.98515e-09
-1.75449 1.13955 -0.762123
-1.15885e+23 0.00099854 -5.98515e-09
-1.75449 1.13955 -0.762123
-1.06737e-12 nan -0.000462379
-1.77524 1.15876 -0.718361
-4.34693e+14 8.43332e-32 -2.56896e+12
-1.77516 1.15872 -0.72026
3.0191e+14 -4.74316e-29 9.29479e-19
-1.75828 1.14322 -0.761803
1.2028e+31 1.47735e-17 1.98017e-33
-1.75934 1.14425 -0.761525
-1.48502e+19 -4.04584e-17 1.86811e-23
-1.77527 1.15886 -0.72157
-5.38515e+13 -4.09967e+08 -7.46968e+19
-1.75181 1.13686 -0.761001
-5.38515e+13 -4.09967e+08 -7.46968e+19
-1.75181 1.13686 -0.761001
-8.18377e+14 -36.0767 7.44022e-37
-1.75732 1.14229 -0.761835
-4.32488e-25 6.20047e-19 1.21197e-11
-1.77199 1.15522 -0.707013
-3.94852e-07 -8.35244e-17 2.14666e-14
-1.76463 1.14927 -0.757922
-3.80846e+26 8.57865e-13 -3.22903e-16
-1.76458 1.14932 -0.759708
8.51741e-33 5.87651e-22 2.87351e-19
-1.75235 1.13738 -0.760856
-2.46655e-33 -1.51982e-29 9.606e+16
-1.75974 1.14462 -0.761284
1.0695e-10 -8.83531e+15 -1931.99
-1.75749 1.14244 -0.761658
-1.75683e+16 -1.68833e+16 2.69021e-33
-1.75399 1.139 -0.761204
-2.29363e+38 2.87787e+32 -3.97331e-32
-1.74928 1.13468 -0.759842
1.33142e+17 1.12151e+36 -1.26099e-15
-1.75862 1.14352 -0.761184
-1.66899e+11 2.44337e+21 5.64034e-17
-1.75093 1.13596 -0.760167
-1.66899e+11 2.44337e+21 5.64034e-17
-1.75093 1.13596 -0.760167
3.89694e+20 -4.493e-33 624022
-1.73935 1.12973 -0.75761
nan -1.01543e+08 7.89546e-11
-1.76719 1.15117 -0.740588
-2.81073e+18 0.0299495 1.03008e+09
-1.75695 1.14189 -0.761128
0.0303949 13.0967 87.3743
-1.77519 1.15872 -0.71916
-6.23297e-35 5.75928e-31 2.57307e-05
-1.69319 1.08806 -0.739827
-1732.85 7.81143e-36 -3.31671e-26
-1.76191 1.14666 -0.759417
-9.97779e+06 -2.48373e-25 -0.00283549
-1.76383 1.14818 -0.752927
-51.7717 2.2222e-28 5.26128e+15
-1.76453 1.14882 -0.751719
-7.84907e+09 0.000252495 2.39498e+27
-1.76759 1.15152 -0.738518
0.00319049 -2.26493e-08 -3.23133e-34
-1.76728 1.15124 -0.739914
5.25101e+27 5.72368e+16 -2.89026e+09
-1.76669 1.15072 -0.742665
1.79884e+35 -1.6879e-28 6.1162e+16
-1.76342 1.14781 -0.753642
-0.0394101 -3.61597e+28 -1.90921e-33
-1.68148 1.07624 -0.732674
-6.35624e-11 -9.77593e+11 2.77596e+29
-1.77518 1.15876 -0.720868
-3.37594e+15 -1.29287e-19 1.21623e-14
-1.68619 1.08097 -0.735268
1.36695e+10 6.29443e+33 -2.72284e+32
-1.7589 1.14377 -0.760637
0.077307 -0.00113841 36.4184
-1.76189 1.14661 -0.758954
0.077307 -0.00113841 36.4184
-1.76189 1.14661 -0.758954
1.569e-27 -0.0552422 -194.309
-1.7634 1.14775 -0.753015
7.96109e-21 -6.11431e+36 -1.84986e-11
-1.76417 1.14843 -0.751186
1.65862e-05 -0.000267774 9.55799e-23
-1.76027 1.14506 -0.759949
-0.0308483 -1.96643e+20 1.10443e-12
-1.73239 1.1262 -0.755379
1.93057e-11 -4.3335e+24 6.26554e+33
-1.74452 1.13222 -0.757694
7.37224e-13 5.69891e+26 6.08298e-29
-1.76691 1.1509 -0.741011
1.16738e-25 2.5855e-32 -0.000368853
-1.76808 1.15193 -0.73498
3.62066e-08 2.6769e+14 -0.0767575
-1.70639 1.10121 -0.745965
3.62066e-08 2.6769e+14 -0.0767575
-1.70639 1.10121 -0.745965
1.1744e+11 -2.89611e+35 3.15029e+23
-1.76106 1.14579 -0.759016
4.10248e-05 3.68417 7.13369e+25
-1.7639 1.1485 -0.756947
4.94709e+36 1.62845e+25 4.04736e+29
-1.76262 1.14704 -0.753963
8.74494e-13 4.38123e+21 1.66492e+31
-1.76789 1.15176 -0.735955
-1.27737e+30 1.27269e-35 -3.16298e-08
-1.76252 1.14696 -0.754304
-1.10544e+06 -1.27646e+31 -1.45787e-35
-1.76735 1.15127 -0.738226
-1.10544e+06 -1.27646e+31 -1.45787e-35
-1.76735 1.15127 -0.738226
5.20834e-38 -6.32772e-34 -4.3635e+12
-1.67364 1.0682 -0.726815
2.21783e-10 -1.38271e+19 -1.91854e-29
-1.76926 1.15296 -0.728762
-1.21554e+08 -3.94083e-10 -812798
-1.76793 1.15179 -0.735377
90747.6 3.66721e+20 3.98834e+31
-1.69712 1.09181 -0.740059
0.101738 1.15375e+25 1.223e-23
-1.75911 1.14391 -0.759572
-5.24506e+08 5.92509e-05 -2.98675e-28
-1.74773 1.13378 -0.757809
-52.3334 8.66647e+07 -3.36619e+34
-1.76878 1.15255 -0.731554
-15.8065 2.67556e+12 -0.000117685
-1.7625 1.14691 -0.753961
-2.9121e-18 -2.91668e-27 1.38689e+25
-1.67307 1.06757 -0.726053
2.751e+18 -3.99628e-36 1.59211e-21
-1.74901 1.13438 -0.757619
-1.66949e+37 7.75028e+12 -7.32603e+37
-1.76297 1.14723 -0.751389
-1.45554e+07 1.77246e+15 -9.35498e-08
-1.76292 1.14719 -0.751356
1.11363e+17 1.59944e-05 -2.30343e+27
-1.76152 1.14619 -0.75796
1800.34 -9.03037e-38 7.38668e-16
-1.75297 1.13782 -0.758582
-1.07198e+14 1.77534e-06 -1.11901e+16
-1.73177 1.12577 -0.75384
9.20416e-15 -4.43966e+27 -1.03195e+07
-1.76981 1.15344 -0.725212
9.20416e-15 -4.43966e+27 -1.03195e+07
-1.76981 1.15344 -0.725212
0.168839 3.29547e+35 2.59904e+34
-1.70001 1.09464 -0.740875
0.168839 3.29547e+35 2.59904e+34
-1.70001 1.09464 -0.740875
4.48584e-28 -2.19141e-30 -1.44557e+32
-1.76229 1.1466 -0.752194
2.30296e-19 6.10593e-33 nan
-1.76355 1.14782 -0.751099
1.43331e-29 1.33283e-05 -1.07583e-33
-1.76245 1.14673 -0.751732
-3.27392e-10 -3.96438e+06 -4.49198e+15
-1.7714 1.15474 -0.712368
3.49021e+08 -3.20438e+34 -4.29931e-10
-1.75103 1.13587 -0.757744
1.88318e-28 3.1075e-31 -2.24276e-38
-1.72342 1.1181 -0.751458
-3.57258e-20 -5.44015e+07 0.142662
-1.76724 1.15114 -0.737802
-2.6301e+22 5.80291e-22 3.57891e-07
-1.76237 1.14664 -0.751612
4.67072e-29 -2.41019e+10 -4.49348e-27
-1.76633 1.15033 -0.741767
0.0368723 -9.09328e+19 -4.78231e-26
-1.7658 1.14985 -0.743894
2.81779e-32 -5.32853e-06 90263.4
-1.76807 1.15188 -0.7337
5.85566e+18 -342.146 2.88741e-18
-1.76747 1.15135 -0.736593
5.85566e+18 -342.146 2.88741e-18
-1.76747 1.15135 -0.736593
5.85566e+18 -342.146 2.88741e-18
-1.76747 1.15135 -0.736593
-3.32112e+25 104.161 -1.24277e-33
-1.73998 1.12984 -0.755239
-3.28428e-28 1.883e-18 3.80614e+06
-1.7477 1.13368 -0.756735
2.31165e+11 9.39611e-09 -1.23878e-22
-1.72168 1.11631 -0.750745
6.57175e+19 -1.74657e-19 49169.1
-1.76906 1.15276 -0.728827
6.57175e+19 -1.74657e-19 49169.1
-1.76906 1.15276 -0.728827
0.635966 -0.000808023 -3.07763e-33
-1.76256 1.14682 -0.751287
-2.62601e-21 -4.01562e+15 59406.2
-1.7378 1.12873 -0.754554
1.38491e+31 -2.72226e-36 3.74106e-28
-1.76224 1.14651 -0.751431
1.38491e+31 -2.72226e-36 3.74106e-28
-1.76224 1.14651 -0.751431
-1.97295e-18 2.10956e-35 -1.04429e+06
-1.76947 1.15312 -0.726304
5.2171e+10 4.19574e+14 2.55031e-20
-1.74985 1.13473 -0.756777
1.71619e+10 -2.76902e+22 -7.11038e-38
-1.76533 1.14941 -0.745198
-1.43776e+29 -2.00965e+36 -0.109197
-1.76901 1.15272 -0.728948
-1.27829e+34 -6.30748e-13 -6.44149e+35
-1.70922 1.10376 -0.74437
-43.0224 -2.10693e-17 2.18405e+31
-1.76214 1.14641 -0.751566
5.86842e-15 4.9259e+31 -4.05534e-17
-1.74403 1.13181 -0.755538
5.86842e-15 4.9259e+31 -4.05534e-17
-1.74403 1.13181 -0.755538
-1.4884e-28 1.49957e+11 -3.36832e+07
-1.76235 1.1466 -0.751039
-0.438917 -1.44088e-05 4.43788e-34
-1.76688 1.1508 -0.73839
2.50543e+06 2.58936e-36 -7.27981e-22
-1.75237 1.13714 -0.757154
2.50543e+06 2.58936e-36 -7.27981e-22
-1.75237 1.13714 -0.757154
-1.97888e+31 -8.47072e-11 4.34381e+37
-1.76641 1.15038 -0.740645
-1.97888e+31 -8.47072e-11 4.34381e+37
-1.76641 1.15038 -0.740645
-4.5178e-28 -8.92122e-23 6.28652e+36
-1.76225 1.14651 -0.75113
8.49675e-07 4755.13 -1.79868e+35
-1.76155 1.14615 -0.756769
8.24515e+17 -312.636 1.92089e+21
-1.76216 1.14642 -0.751305
2.12741e-07 -6.82232e+21 -19084
-1.76695 1.15086 -0.73807
-1.70925e+15 -5.83183e+23 -4.80117e-12
-1.75102 1.13578 -0.756705
8.26065e-33 9.29649e+12 -4.18626e+21
-1.76877 1.15248 -0.729451
-3.40067e+21 -1.786e-07 -5.8789e+32
-1.75683 1.14154 -0.757376
-3.28295e+07 7.59376e-31 1.95821e-27
-1.76175 1.14605 -0.752155
4.62946e+15 361232 1.57029e-34
-1.68286 1.07716 -0.729166
3.46738e+23 2.35833e-23 -1.81119e-34
-1.75073 1.13549 -0.756429
411.203 -2.83442e-13 -1.25663e-33
-1.75346 1.1382 -0.757164
-1.14075e+18 -1.13807 -2.78885e-15
-1.76683 1.15074 -0.738118
2.2109e+33 -1.61164e-23 -2.47906e+22
-1.73172 1.12563 -0.752433
-1.91268e+31 1.914e+16 -1.70848e+28
-1.76227 1.14651 -0.750959
-1.14563e+32 3.59756e-22 -2.08576e+16
-1.74548 1.1325 -0.755331
4.64541e-30 9.65197e-08 1.40505e-28
-1.71357 1.10805 -0.745663
4.72018e-35 -8.13787e-22 1.13536e-28
-1.76952 1.15315 -0.725567
3.97942e-25 -8.68228e+27 -2.53148e+24
-1.76678 1.15069 -0.738441
3.0319e-31 -119.035 7.97105e+37
-1.75436 1.13908 -0.757041
-0.717967 4.29573e+21 9.6357e-22
-1.76842 1.15216 -0.730791
-1.29255e+21 1.99979e+07 -3.82873e-26
-1.74715 1.13332 -0.75548
-6.13445e-34 -5.14256e-17 -5.13702e-17
-1.77121 1.15453 -0.711813
-7.52583e+29 0.414203 8.16095e+26
-1.75275 1.13748 -0.756666
-7.52583e+29 0.414203 8.16095e+26
-1.75275 1.13748 -0.756666
-4.85403e+16 2.24603e+27 -3920.75
-1.77161 1.15482 -0.706666
1.80323e+28 -2.45606e+31 0.000452146
-1.75382 1.13853 -0.75682
-3.76802e+09 2.66199e-17 -7.62557e-15
-1.76896 1.15264 -0.727767
4.84148e-24 -0.215252 673638
-1.76154 1.14583 -0.751785
6.08928e-18 -8.5405e+17 -2.00519e-31
-1.76188 1.14632 -0.754225
1.20942e-30 -4.51478e+18 2.40382e-30
-1.75525 1.13994 -0.756901
1.20942e-30 -4.51478e+18 2.40382e-30
-1.75525 1.13994 -0.756901
2.31637e+37 -1.49803e-33 2.66965e+14
-1.76214 1.14638 -0.750814
-2.71301e-18 2.08167e+10 -8.566e+18
-1.75449 1.13919 -0.756793
0.00654551 -5.83227e-16 -1.31464e-11
-1.76669 1.15061 -0.73857
-1.61267e+35 -9.92736 -0.000159528
-1.76129 1.14559 -0.752082
2.07012e-30 -5.05373e-16 1.13391e-30
-1.76546 1.14949 -0.74334
2.07012e-30 -5.05373e-16 1.13391e-30
-1.76546 1.14949 -0.74334
6.53186e-25 1.38117e-28 18652.1
-1.76866 1.15236 -0.72896
1.79342e+31 6.47809e+24 1.52668e+13
-1.75362 1.13832 -0.756488
2.65721e+14 -3.51742e+26 -9.83486e-21
-1.76165 1.14601 -0.752641
-1.85374e+30 -5.29537e-28 -1.16451e+35
-1.75525 1.13992 -0.756638
0.0206246 1.69308e-06 -5.15646e+34
-1.76159 1.14585 -0.751215
-1.55827e-19 -2.59434e+24 -0.00134114
-1.7268 1.12121 -0.750468
7.56649e-32 -51.0196 -1.30334e-05
-1.76682 1.15072 -0.737688
-4.42876e-35 -3.54386e-16 -3.70307e+22
-1.76731 1.15116 -0.735424
-9.35469e-24 -1.83562e-34 -2.6066e+26
-1.76572 1.14973 -0.742368
1.06089e-22 -4.34408e+24 1.64903e+37
-1.76979 1.15336 -0.723234
4.14567e-22 -2.64783e+24 -4.06883e+35
-1.76754 1.15135 -0.734208
2.00348e-25 6.46167e+10 -1.09296e-16
-1.75116 1.13586 -0.755689
-9.19403e-18 1.92468e-23 -1.19565e-13
-1.76166 1.1459 -0.750945
-6.30351e-37 2.51248e-20 3.30728e+15
-1.73948 1.12944 -0.753228
38785.5 -3.32242 -0.000217972
-1.6003 1.00627 -0.688298
1.08921e-32 -30236.2 3.38323e-36
-1.75114 1.13583 -0.755432
-5.21157e-08 -0.158879 -6.91304e+20
-1.76915 1.15279 -0.726223
6.40932e-29 122.646 -0.00865785
-1.72817 1.12254 -0.750501
-7.5547e-22 -6.56319e-17 -4.35628e+08
-1.75422 1.13889 -0.756168
6.50824e-12 -4.59628e-30 1.05753e-05
-1.76478 1.14886 -0.745205
-1.70283e+10 1.08813e-22 3.36309e+13
-1.76908 1.15272 -0.726415
-1.80006e+18 5459.71 -23914.7
-1.75828 1.1429 -0.756362
5.36089e+13 -4.09791e-19 -7.74865
-1.74501 1.1322 -0.754161
-1.67306e+38 -48.5294 -5.5353e+08
-1.76611 1.15007 -0.740521
-1.91436e-17 3.85001e+35 -7.44226e-28
-1.76165 1.14588 -0.750703
-2.29344e+07 3.65749e-35 -6.09733e+09
-1.76236 1.14684 -0.754728
-1.13377e+14 1.1025e-22 -2.1507e+06
-1.75567 1.14031 -0.756202
2.15286e+15 -5.26091e-11 3.52013e+10
-1.70992 1.10417 -0.741436
-1.18261e-35 1.60312e-16 7.92294e-33
-1.75232 1.13699 -0.755596
-1.18261e-35 1.60312e-16 7.92294e-33
-1.75232 1.13699 -0.755596
9.89644e+20 0.0443555 7.53058e-32
-1.76674 1.15062 -0.737415
9.89644e+20 0.0443555 7.53058e-32
-1.76674 1.15062 -0.737415
5.36855e-31 1.8097e-20 -4.42451e-11
-1.76898 1.15264 -0.727095
-0.070083 5.57438e-27 -461106
-1.76711 1.15095 -0.735525
1.36344e-14 1.67952e-17 -4.50362e+37
-1.61646 1.01436 -0.692561
1.14269e-12 4.3567e-33 -2.84238e+36
-1.76647 1.15038 -0.738418
0.207213 352807 209.793
-1.75879 1.14338 -0.756168
0.207213 352807 209.793
-1.75879 1.14338 -0.756168
-1.44862e+10 2.10649e-19 2.42658e+13
-1.75121 1.13588 -0.755211
0.362408 313988 -1.11829e-19
-1.76764 1.15143 -0.733094
-1.611e+34 5.422 2.88078e-12
-1.76494 1.14899 -0.744376
-1.3435e+28 3.54418e-36 3.86277e-23
-1.76189 1.14609 -0.750266
-6.60159e-31 -2.28731e+38 0.000793657
-1.76534 1.14935 -0.742827
267.113 nan 1.94207e-05
-1.74716 1.13327 -0.754357
267.113 nan 1.94207e-05
-1.74716 1.13327 -0.754357
2.28354e+17 -1.07837e+23 1.63318e+09
-1.76155 1.14578 -0.750745
1.29787e-28 1.92813e+36 -3.26845e-27
-1.76601 1.14996 -0.740057
2.81128e-14 4.45448e-21 1.17168e+21
-1.75389 1.13854 -0.755731
7.49791e-32 3.82314e-07 -9.40155e-14
-1.73056 1.12487 -0.750672
-1.15095e+24 -2.71155e+24 -1.11765e-26
-1.76639 1.1503 -0.738587
-1.88123e+10 3.94357e-05 -0.0842539
-1.76627 1.15019 -0.739096
0.122922 6.1984e-31 -9.88617e-26
-1.76653 1.15043 -0.737923
0.122922 6.1984e-31 -9.88617e-26
-1.76653 1.15043 -0.737923
5.20666 1.56747e+35 1.19018e+20
-1.69621 1.09036 -0.733797
-5.29048e-05 2.44981e-33 -121226
-1.7358 1.12757 -0.751901
-1.23354e-29 6.47632e+19 2.29294e+17
-1.76848 1.15218 -0.729079
5.39134e+25 -2.53082e+37 -2.79917e+31
-1.76907 1.1527 -0.726171
-1.83639e-06 -4.35887e+06 -4.18414e-11
-1.76841 1.15211 -0.729431
1.63082e+21 -0.00305288 -1.49495e-36
-1.7683 1.15202 -0.729865
-3.51008e+35 1.122e+07 4.22531e+35
-1.75206 1.13672 -0.755262
5.89853e+21 0.00239562 -9.0477e-20
-1.76141 1.14564 -0.750774
4.78802e+26 -1.31016e-33 -8.36157e-05
-1.76495 1.149 -0.744
-1.82486e+24 -3.48623e+22 -2.86568e+36
-1.7656 1.14959 -0.74174
-1.94639e-07 -0.000381554 8.8244e-22
-1.76564 1.14962 -0.741281
-2.59714e-13 3.44994e+19 -86.0888
-1.75575 1.14036 -0.755786
-5.54471e+35 6.64936e+13 -2.92544e-18
-1.73678 1.12805 -0.751933
-4.02986e-29 3.30855e+19 -5.73707e+21
-1.64679 1.04056 -0.706553
2.24263e+32 -1.71968e-15 7.23673e-12
-1.75365 1.1383 -0.755581
-1.16291e-36 6.51592e-19 5.28451e+11
-1.69307 1.08716 -0.731712
-8.32515e-36 2.85054e-26 1.04883e+08
-1.75672 1.14132 -0.755758
6.43045e+31 1.66378e-35 -1.09847e+07
-1.75394 1.13857 -0.755508
-5.71427e-07 2.03174e+37 6.01186e+12
-1.76683 1.15069 -0.736345
-49715.5 4.75341e+14 -3.47392e+20
-1.76696 1.15081 -0.735756
-2.16458e+17 -30567.9 -5.92119e-06
-1.76187 1.14606 -0.75009
3.50681e-31 -3.07873e-06 -2.41638e+23
-1.76796 1.15171 -0.731192
9.21628e+35 -3.14854e-37 2.05629e-16
-1.76826 1.15197 -0.729863
9.21628e+35 -3.14854e-37 2.05629e-16
-1.76826 1.15197 -0.729863
185077 1.24926e-17 -8.08401e+12
-1.72676 1.12103 -0.74899
-6.31603e+15 2.87463e+27 4.81811e+08
-1.76153 1.14578 -0.751134
-1.60292e+25 -1.10275e+36 -4.54879e+32
-1.76165 1.14588 -0.750928
-1.60292e+25 -1.10275e+36 -4.54879e+32
-1.76165 1.14588 -0.750928
3.30328e+26 8.70766e+11 -7.81577e+21
-1.76565 1.14963 -0.741208
3.30328e+26 8.70766e+11 -7.81577e+21
-1.76565 1.14963 -0.741208
4.12014e+10 -3.6954e+09 6.70451e+16
-1.76591 1.14986 -0.740191
-2.70129e-14 2.47516e+24 -3.90553e-13
-1.7019 1.09602 -0.736099
3.27185e+19 -3.10716e-28 1.08676e-18
-1.76616 1.15009 -0.739089
5.17166e-15 8.54399e+16 -2.72994e-19
-1.75583 1.14044 -0.755574
166377 1.8752e+13 -8.80161e-38
-1.69169 1.08576 -0.730549
-2.0463e-06 1.28139 -3.46731e-20
-1.7179 1.1121 -0.744286
-3.62584e+27 3.60488e+28 1.40313e-29
-1.75617 1.14077 -0.755586
-7.26416e+12 2.54526e-38 -9.74863e+31
-1.76662 1.1505 -0.736967
0.00390186 -1.70578e+13 nan
-1.77064 1.15405 -0.716039
-1.15088e-29 -4.73153e+31 -3.8351e+11
-1.75438 1.139 -0.755376
nan 7.15327e-36 -587.515
-1.76678 1.15065 -0.736408
-1.27262e+20 9.96949e-08 -1.79188e+28
-1.68863 1.08267 -0.728916
-1.06289e+06 -1.69714e-25 2.71306e-11
-1.6707 1.06461 -0.719206
-8.24206e+20 3.26463e-24 -6.74192e+12
-1.76155 1.14575 -0.750287
-3.45262e+26 7.30412e+17 -7.99193e-36
-1.62167 1.01683 -0.693222
9.49595e-19 -4.70838e+30 2.56168e-14
-1.75206 1.1367 -0.754826
9.55285e-38 -3.42603e+19 -0.00250922
-1.75489 1.13949 -0.755265
-2.20855e-37 4.80425e+20 70124.3
-1.73866 1.12896 -0.75185
2.5822e-36 -1.94627e+29 9.95664e+21
-1.76961 1.15317 -0.723034
2.5822e-36 -1.94627e+29 9.95664e+21
